0.6312961119 0.2456941435 -0.0316848122
0.5085606796 0.2506058220 -0.3590655340
0.4953006117 0.2710130352 -0.2801597307
0.6228830753 0.1646080112 -0.1814881926
0.6360137863 0.2785978489 -0.1258367515
0.3973987522 0.2852209553 -0.1419989602
0.3545899890 0.3232427586 -0.0053416758
0.4630288337 0.3213765320 -0.0304550064
0.4910000000 0.1767383043 -0.2249151986
0.6460646621 0.2593270740 -0.1179061882
0.4927057269 0.2735767490 -0.2739112223
0.6664898187 0.2324418802 -0.0807613990
0.5711544223 0.1786396814 -0.3262001059
0.4805212089 0.1915409918 -0.2550329716
0.6568158794 0.2165495052 -0.0722698492
0.4156109082 0.2007162079 -0.0627085591
0.4211554632 0.2618413507 -0.1000000000
0.3796110321 0.1727196187 -0.2696694324
0.6327717094 0.1957816557 -0.0119797924
0.5157029302 0.1462970698 -0.2195732415
0.6263841059 0.2424486402 -0.1887652527
0.4588555344 0.1772027965 -0.0462629382
0.3712148350 0.2436697942 -0.0500171378
0.5580000000 0.1446645398 -0.2787739137
0.6245788931 0.1534579298 -0.0278509224
0.4579183919 0.3416106274 -0.0429184773
0.5845032204 0.1452599387 -0.0223614415
0.5446474181 0.1369972237 -0.2375069406
0.3784508827 0.2363866558 -0.0054061537
0.5379697814 0.1584799641 -0.0427457645
0.3978564084 0.2819319089 -0.0888993244
0.5750252741 0.1481657347 -0.0243745179
0.4706756177 0.2038173799 -0.1195300598
0.5811469717 0.2031587837 -0.3157657703
0.5641563751 0.1519005771 -0.2600000000
0.6276594744 0.2647652986 -0.1102876458
0.4792819333 0.1701784686 -0.0454687862
0.6284192146 0.1942393970 -0.0080240182
0.5693286985 0.1661065552 -0.3282346811
0.6271752706 0.2533935518 -0.1818271172
0.6537765927 0.2207887150 -0.0399035401
0.4558989465 0.3130816074 -0.1142195219
0.6012967420 0.2069684404 -0.2221486572
0.5651856350 0.3131525836 -0.1133363866
0.5796873512 0.3076906296 -0.1461512803
0.4055028308 0.1787077494 -0.3600000000
0.5045810558 0.2841828929 -0.0424926454
0.4461904756 0.3314486291 -0.0474474791
0.6237012937 0.2457633104 -0.2230917240
0.4860684424 0.1776313502 -0.0950832835
0.4232687251 0.2211673244 -0.2550000000
0.6371512725 0.1551479979 -0.0904895887
0.3716348467 0.1881925671 -0.3540871167
0.4556072887 0.3302276637 -0.0398228886
0.4086305182 0.2331728626 -0.0736680753
0.5992711956 0.1606337499 -0.1112062189
0.6592537019 0.2429186176 -0.1220613251
0.6301639506 0.1609524852 -0.0385844059
0.3222366107 0.2177695119 -0.2938239299
0.5656580908 0.3163967250 -0.1473629605
0.4714034104 0.2532494605 -0.3089082854
0.4067540873 0.2185824524 -0.2600000000
0.4188550615 0.2446401761 -0.0840095103
0.5538981197 0.2742979371 -0.2184994828
0.6142852764 0.2452759070 -0.2403290872
0.4315557060 0.1961650691 -0.0454325486
0.4900827401 0.1635285826 -0.1910188711
0.5789818122 0.2296683883 -0.2850000000
0.4782043080 0.1789143944 -0.2322032440
0.5654001372 0.1566423543 -0.0718953657
0.6528674668 0.2281990958 -0.0233185099
0.4468180280 0.2113307312 -0.1063633800
0.5235797232 0.1622229352 -0.0265852967
0.4170000000 0.3018396038 -0.1067873038
0.4979650070 0.2141745567 -0.1593412914
0.3866730622 0.2556127828 -0.2823120286
0.5865444313 0.3006802259 -0.1668999193
0.5126406698 0.2495059114 -0.2454491628
0.6488331469 0.2177708833 -0.0622914337
0.6570821499 0.2445268235 -0.1329107316
0.5445435906 0.1648202968 -0.1783594064
0.6176429581 0.1595295832 -0.1287523312
0.5887264905 0.1888774842 -0.2812214092
0.4566893309 0.3079531949 -0.0721219345
0.3809163152 0.2520000000 -0.2910027045
0.5499859482 0.1695127166 -0.1204641273
0.4009948882 0.1714364060 -0.3368907798
0.6617741329 0.2353538943 -0.1281202833
0.4313851116 0.3025451682 -0.1189090852
0.6129459490 0.1576596930 -0.1158955476
0.4723471599 0.1766239226 -0.0672023482
0.6705082926 0.2262184027 -0.1250000000
0.4849702403 0.1620000000 -0.3004388234
0.4304478026 0.1910752923 -0.0290859111
0.6243963771 0.2512226675 -0.2094701824
0.5864295437 0.1883068169 -0.2423586654
0.5855992342 0.2761153716 -0.0616645995
0.5466021670 0.1623848521 -0.0793309251
0.4583006724 0.1691662931 -0.3014219785
0.4310481243 0.2741111442 -0.1593252604
0.5740000000 0.2433083842 -0.2714373264
0.3542082195 0.2299166341 -0.3200877724
0.5327494070 0.1722660831 -0.1740852750
0.6425398933 0.1927307183 -0.0859508001
0.5521719034 0.1388118133 -0.2556479011
0.5780468533 0.1690000000 -0.1268466714
0.4981706643 0.2705289149 -0.3004710851
0.5001802976 0.2867849448 -0.0535698895
0.5085358135 0.1590000000 -0.3358952725
0.6198847708 0.2809809359 -0.0885841327
0.5319174756 0.2636795509 -0.3024468452
0.6417508033 0.2245339587 -0.0133767043
0.6452449249 0.2171713495 -0.1421668442
0.4284537254 0.2227576083 -0.2425745450
0.5320261905 0.1427434524 -0.2701169002
0.3787102324 0.2411884493 -0.2446922483
0.5098234522 0.2843961358 -0.0458326779
0.6474737767 0.2420067831 -0.1373446214
0.6669277948 0.2189028855 -0.1750000000
0.5034628950 0.1510389861 -0.2661841610
0.3193109685 0.1886289420 -0.2758312469
0.5613324189 0.1575481776 -0.0410994364
0.3661476905 0.2418966342 -0.2618966342
0.4290435700 0.2445898066 -0.2459177381
0.5605795306 0.1482854591 -0.2485296427
0.5301888279 0.1487617361 -0.2005819462
0.6499801693 0.1677300090 -0.1130518374
0.6157825541 0.2273401816 -0.2177881376
0.4315577383 0.2753478586 -0.3443478586
0.3625962556 0.2962042778 -0.0265676109
0.6441292154 0.2466748851 -0.1803251149
0.5564418071 0.3136775871 -0.0883929533
0.5704360658 0.1512811530 -0.1995925609
0.6077109455 0.2677851585 -0.0474150259
0.5456129412 0.2783235680 -0.0436485614
0.3662114479 0.2661167075 -0.0058764155
0.3499903255 0.2783687989 -0.0486179043
0.3591884778 0.2469997030 -0.0464313170
0.5878209986 0.1872314979 -0.2685482621
0.3267551347 0.2195336911 -0.2908894851
0.3444494822 0.3367196283 -0.0506238700
0.5513988570 0.1622486051 -0.0830395518
0.6294190818 0.2492018600 -0.1889812636
0.4812241359 0.2869680287 -0.1919396602
0.3694225633 0.1976088321 -0.3550000000
0.5010315016 0.2050315016 -0.2328667647
0.3774418164 0.2354789346 -0.0503962453
0.3919203096 0.2092790357 -0.0511612717
0.6471442848 0.2242961081 -0.1454809494
0.5729675134 0.1653917060 -0.2930916605
0.5318554617 0.1592730723 -0.0596098966
0.6106792521 0.2214260138 -0.2276035409
0.5183970721 0.2399588347 -0.2279509832
0.3454348407 0.3278960759 -0.0471742036
0.4328644283 0.3522407436 -0.0630677859
0.5836323719 0.1826323719 -0.2809569951
0.6546396180 0.2349100986 -0.1774942370
0.3841307065 0.2209452875 -0.3571612366
0.5533000083 0.3193308114 -0.1400000000
0.4865022218 0.1846486949 -0.1193228377
0.5977388014 0.2021901655 -0.2318882705
0.4915786808 0.1709556491 -0.0348303165
0.6505972192 0.2624394223 -0.1216443865
0.6550522569 0.2494368945 -0.1402035929
0.3902560525 0.2164238408 -0.3596280262
0.5596019274 0.3180000000 -0.1400737522
0.4299358846 0.2519463396 -0.1436840093
0.3899737613 0.2538137749 -0.3278999661
0.5298883526 0.1443090591 -0.3075979176
0.6581092616 0.2248852517 -0.0738865769
0.6346677685 0.1680216073 -0.0516424123
0.5804320610 0.1789856760 -0.2392798984
0.5987327348 0.2093863782 -0.2654032536
0.4400061247 0.1942973156 -0.0732859775
0.5872717858 0.1868300068 -0.2756243538
0.6174395211 0.1791219700 -0.0594505987
0.5435239618 0.3190978355 -0.0940179157
0.5807191944 0.2100585706 -0.2865277938
0.5962690422 0.2704015838 -0.0506087698
0.6216299413 0.2559086129 -0.1838460509
0.4676854683 0.3078429189 -0.1228818659
0.3667263873 0.2388573920 -0.3464884567
0.5223491502 0.1479006774 -0.2797510200
0.6193985353 0.2785292640 -0.0967065936
0.4103849916 0.1984303103 -0.2581179336
0.5072688390 0.1710000000 -0.0991065483
0.6089034510 0.2598217408 -0.1869832548
0.5591112818 0.1943376879 -0.3321901416
0.4080272257 0.1746749550 -0.3460650973
0.5881238691 0.2761435103 -0.1957168728
0.5512094705 0.1377413363 -0.3189526477
0.4407196812 0.1717479550 -0.3164632446
0.5969942243 0.2730330070 -0.2016391608
0.5878802078 0.1867281247 -0.2303678170
0.5053836077 0.2617481378 -0.3281977117
0.3570693476 0.2955416937 -0.0142083154
0.5844022027 0.3005720427 -0.1531991486
0.5286537802 0.1602732438 -0.0295459383
0.4381244053 0.2332132319 -0.1173051524
0.5776680977 0.2722346027 -0.2307134976
0.6335472706 0.1647637953 -0.0350386795
0.4872692838 0.3166361772 -0.1506331066
0.5729485498 0.1788443656 -0.3336873518
0.5035228461 0.2452208809 -0.2590773455
0.4795106707 0.1639835184 -0.2550093678
0.3459962458 0.2236846033 -0.3336462272
0.4037943726 0.2791189373 -0.3504017424
0.6163393435 0.2455240783 -0.2329384835
0.3194708942 0.2023929584 -0.3042359936
0.6444294778 0.2657146533 -0.1195772529
0.4124062245 0.2016922366 -0.0334804529
0.6147558975 0.2840265343 -0.1171638593
0.3873856577 0.2181953911 -0.0406549453
0.3163714242 0.2153093380 -0.2917695365
0.4123959252 0.1794663544 -0.2986789224
0.5471449332 0.1360000000 -0.2511924384
0.6569108017 0.1911335015 -0.1758257673
0.3898067063 0.2511099455 -0.0700000000
0.3557552910 0.2712253027 -0.0559657855
0.5561230912 0.2979571112 -0.0739571112
0.6069948084 0.2173298723 -0.2388318809
0.5088581593 0.3180000000 -0.1569185975
0.5216594097 0.2455754406 -0.3421227972
0.4347812631 0.2460075943 -0.1599924057
0.4233350778 0.1938822088 -0.0327513551
0.4646221852 0.1736117464 -0.0431543220
0.5236706911 0.1414977257 -0.2312443143
0.4322701090 0.3644123204 -0.0559559110
0.6374903353 0.2458926645 -0.1811073355
0.4144833948 0.2398820092 -0.0914441276
0.4358561830 0.1730000000 -0.3342959455
0.4868960112 0.1538650003 -0.2288050572
0.4192563497 0.1966366786 -0.2482795289
0.4567910139 0.1949576947 -0.0889765715
0.4398900934 0.2513628635 -0.1311840127
0.3802034692 0.2235136995 -0.0094420092
0.4772220109 0.1954302641 -0.2050000000
0.5683941642 0.2356023850 -0.3128538439
0.6160010409 0.1575854028 -0.0504583447
0.6362336345 0.1648035208 -0.0237346909
0.4545666892 0.1760803029 -0.3316641284
0.4918093971 0.2881250781 -0.0339051735
0.4609231976 0.3442758200 -0.0218336970
0.6403896868 0.2459024035 -0.1400000000
0.4891974717 0.2033949434 -0.2550324968
0.5224693296 0.2801329627 -0.0417341343
0.5863597275 0.1906235139 -0.2943484343
0.3981368182 0.2873111543 -0.1500000000
0.4958644018 0.2501178596 -0.2050000000
0.6305314228 0.2638999698 -0.1407809621
0.5807622169 0.1469427852 -0.1957806440
0.5750609068 0.1684145424 -0.2391672754
0.4512557057 0.1927037579 -0.0816008629
0.5751897980 0.3024795043 -0.1710013375
0.4919483449 0.1673139730 -0.3343061169
0.5698381789 0.2386949979 -0.2979973402
0.5104452837 0.2032350254 -0.2246223434
0.6202312579 0.1667380780 -0.1371216032
0.3585685216 0.2190827512 -0.2507818239
0.3630253117 0.2843261218 -0.0155249095
0.3568874492 0.1685970946 -0.3388906885
0.6311280120 0.1878753854 -0.1696850661
0.5519950689 0.3151735710 -0.0945784001
0.3231015014 0.1832252609 -0.3058199429
0.5977588241 0.2905825677 -0.1542634401
0.5680000000 0.2408246284 -0.2921739215
0.3835914792 0.2211688967 -0.0145688119
0.6429196806 0.2292023220 -0.1489850900
0.3858878459 0.2232677149 -0.0429522533
0.4308662180 0.1774312215 -0.2936065738
0.4143333473 0.2108194220 -0.2300000000
0.5907028814 0.1949367768 -0.2831637676
0.4499118800 0.3204780332 -0.0455348147
0.5756872950 0.3149768893 -0.1278857704
0.3220000000 0.1836393557 -0.2765309243
0.6049867197 0.3019289831 -0.1308080085
0.5380093478 0.1665046739 -0.0982053809
0.3462178302 0.2758778231 -0.0583662735
0.3960602406 0.1728151855 -0.3243977639
0.6272823652 0.1699733215 -0.0330056597
0.6424305211 0.1870966383 -0.0867710919
0.4620133465 0.3555423304 -0.0152468462
0.3384588166 0.2249105511 -0.2888973035
0.4231009428 0.2871812141 -0.1497726650
0.5312320277 0.1387679723 -0.2053714354
0.3512534969 0.3047423141 -0.0128623484
0.3539921438 0.1936913530 -0.2454683360
0.6190022009 0.1721218648 -0.0520986820
0.4560820450 0.3140216630 -0.1074742689
0.4114902155 0.2373546844 -0.0768465876
0.5170508641 0.1710926967 -0.1143412006
0.4696187923 0.1716913655 -0.0475324470
0.5338048080 0.2818927147 -0.0457561933
0.4621254937 0.3068739316 -0.0704533763
0.5447246220 0.1360182773 -0.2587770655
0.5056637038 0.3190597757 -0.1449344327
0.4516409466 0.2962812492 -0.1441921908
0.5014159493 0.3181300745 -0.1532430300
0.5671622606 0.2780000000 -0.0384696844
0.5319857573 0.2545143813 -0.3178166777
0.4285239332 0.2475487585 -0.1085732394
0.5041527406 0.1994933322 -0.1664652710
0.3572542262 0.1840532079 -0.2600000000
0.4810332499 0.1623843871 -0.1980780643
0.5406189510 0.1416766492 -0.3047131343
0.5295030839 0.1576574980 -0.3409153702
0.4170133825 0.2360623056 -0.0803798859
0.5785309536 0.3046167355 -0.1533010320
0.4829460594 0.2665354829 -0.2964105765
0.5653331515 0.3127668510 -0.0968314782
0.3592802737 0.1820509247 -0.2324629000
0.5132863605 0.2377369126 -0.2297613662
0.6235873501 0.1519826229 -0.0537029982
0.6065285742 0.1665572535 -0.1523312103
0.4857071819 0.2590000000 -0.3264139700
0.6591043679 0.1958993422 -0.0812471507
0.5138571890 0.2445981544 -0.2348381034
0.5648719889 0.1528293185 -0.2178061658
0.6193216844 0.2322028073 -0.2170822771
0.6328941172 0.1918096295 -0.1412925925
0.5749797822 0.1683063762 -0.2211569196
0.4290594129 0.2141187357 -0.0800000376
0.3898117430 0.2296490586 -0.3600000000
0.6061402202 0.2699195760 -0.0403440662
0.4682952678 0.1770083296 -0.0294553899
0.5224143795 0.2712454456 -0.2930193840
0.5474791196 0.2010667542 -0.3450880565
0.6520131834 0.2379483164 -0.0699918250
0.5388061803 0.2807621055 -0.0386294651
0.3977899242 0.1730465455 -0.2907853883
0.6217685677 0.1547548546 -0.0471096231
0.6502682022 0.2545987443 -0.1432947448
0.6438355903 0.2379227187 -0.0413799322
0.4257308310 0.2497661719 -0.1026165617
0.5487192501 0.1756402390 -0.1626367157
0.5626914721 0.1580492771 -0.0358332197
0.4785214853 0.2679207006 -0.2904816169
0.5203586665 0.2554750547 -0.3245325934
0.4662751854 0.2571490656 -0.3243694010
0.4973611064 0.1702370153 -0.0527893318
0.4012475586 0.2028598166 -0.0318234967
0.5377173417 0.1615961662 -0.3405768155
0.4087221028 0.2050984934 -0.2587964953
0.4755001339 0.2646159776 -0.2784600561
0.5602295457 0.1476721592 -0.2590338351
0.4093758627 0.1760988182 -0.3176731528
0.4919828887 0.1655949164 -0.3289787354
0.3470000000 0.1802233227 -0.3234544095
0.4806001006 0.2898324309 -0.0566720085
0.6442437666 0.2447515266 -0.0516601404
0.5963148567 0.2888060973 -0.1649290459
0.6188117168 0.2371199408 -0.2372942773
0.4280033964 0.1767184892 -0.3435924462
0.5400000000 0.2170672223 -0.3499917101
0.5097419531 0.1731436620 -0.1152873240
0.3760259655 0.2492340774 -0.2753032672
0.3650085858 0.2577625957 -0.0404252299
0.4485778698 0.1758920787 -0.1949397946
0.5178421591 0.1560736961 -0.3404207238
0.5296405522 0.1690084968 -0.3562418189
0.5661333169 0.1454220634 -0.2019234655
0.4592083054 0.1667722646 -0.3085393044
0.5669531165 0.1890732051 -0.3349531165
0.5042120695 0.2686581455 -0.3196755376
0.4625976213 0.1672124613 -0.1989376933
0.5518846272 0.3121616385 -0.1630253812
0.6257302458 0.1475917133 -0.0257829294
0.4913129516 0.2052073736 -0.1699819236
0.4169494790 0.1961613770 -0.0573930056
0.5960658127 0.1672259766 -0.1579567056
0.5537284902 0.1561727934 -0.0575596036
0.4948157528 0.1661842472 -0.3486841824
0.5275590465 0.2655056314 -0.3087574427
0.4434344352 0.2679747558 -0.1624353921
0.6188751985 0.2519578703 -0.1889788736
0.5916169579 0.3075746073 -0.1265915509
0.4526936441 0.1894591581 -0.0772404382
0.4483233264 0.2692577518 -0.1592111316
0.4861589733 0.1697347407 -0.3384782688
0.5800000000 0.2251543077 -0.3084122620
0.5598385315 0.2749706249 -0.2306604673
0.3730855757 0.2408054187 -0.2722809472
0.4551048121 0.1790383824 -0.0409916585
0.6516199642 0.2037575521 -0.0702020757
0.3178611638 0.2035561869 -0.2874010124
0.5764908461 0.1703211281 -0.2541628752
0.3525988880 0.1983705218 -0.3392804964
0.6189363765 0.2757110427 -0.1404283966
0.4637426922 0.3326029983 -0.0322031830
0.6222067065 0.1617586938 -0.1605636733
0.5942113292 0.2667886708 -0.2203579635
0.4830963993 0.1737287641 -0.2304773491
0.5732883643 0.3080749957 -0.1501249929
0.4144917030 0.3122322425 -0.0831162431
0.6455933252 0.2502065922 -0.0613021263
0.5038821577 0.2849792534 -0.0478460597
0.5894638515 0.1931761050 -0.2985544591
0.5877981450 0.2720213255 -0.0194417236
0.3449656619 0.3216526219 -0.0485581984
0.5024002988 0.2945192710 -0.0634470691
0.4360084952 0.2524802364 -0.2608490920
0.5962510476 0.1713175997 -0.1460407734
0.4020579037 0.2847347927 -0.1462898004
0.5318598087 0.1863882952 -0.3573001063
0.4335399888 0.2172995562 -0.0839233876
0.5632570113 0.2730000000 -0.2183751725
0.4272262653 0.1738245676 -0.3256779765
0.3352711531 0.2218673760 -0.3114141504
0.6374292948 0.1976198474 -0.0144560544
0.4703715663 0.3036825115 -0.0653708350
0.5512771453 0.1358976211 -0.2084217662
0.4137145966 0.1734437288 -0.3294237970
0.4986266862 0.2889420992 -0.0028190358
0.6231545322 0.1632661940 -0.1430290112
0.6420639888 0.2612086644 -0.1755375460
0.4311757327 0.2503103146 -0.1162739750
0.5791421637 0.1590000000 -0.0895707000
0.3607374685 0.3061849424 -0.0201396173
0.3891281712 0.2194470890 -0.0194034545
0.4880128275 0.2752992696 -0.2672612983
0.4003975076 0.1719298730 -0.3293755488
0.6488858462 0.2550602563 -0.1736905766
0.3219828758 0.2144396025 -0.2876343560
0.4809637295 0.1620047350 -0.2899717475
0.5325224649 0.2620754450 -0.3085052251
0.5048812430 0.1940653988 -0.1690104816
0.3735196353 0.2450713000 -0.0558268621
0.6382251414 0.2219086246 -0.1687748586
0.3785046795 0.2224322781 -0.0504077221
0.4400000000 0.2452802662 -0.1329975856
0.4708181354 0.2099287634 -0.1241300817
0.4209488000 0.1760000000 -0.3236545305
0.6018140446 0.2088760297 -0.2386878019
0.5979254351 0.2025672468 -0.2164530632
0.4446780969 0.2451556849 -0.1290640256
0.4121454149 0.2638463977 -0.3303840057
0.6522229996 0.2516597943 -0.1196468180
0.5513234428 0.2073718608 -0.3425989717
0.4492209040 0.1986891602 -0.1989825800
0.3732848652 0.1728661871 -0.3215778516
0.5352724099 0.1680646796 -0.0933145529
0.3386800087 0.2215493367 -0.2310999927
0.3175745837 0.2061027529 -0.2816733354
0.5580947452 0.1428105097 -0.2026879805
0.4666747709 0.3134210852 -0.1128945739
0.3729134189 0.2495670946 -0.3021669558
0.6279379418 0.1692162398 -0.0468568812
0.6377088252 0.1689423708 -0.0312485021
0.4973088088 0.2404497572 -0.2600000000
0.3724199287 0.2636983552 -0.0170996433
0.4904351694 0.1707493819 -0.0412530904
0.5178938429 0.1926415285 -0.1476090843
0.6452547112 0.1834759055 -0.0987063517
0.4647632987 0.2532907594 -0.3094990631
0.5663523502 0.1573523502 -0.2595321743
0.4107910342 0.1726025696 -0.3345596926
0.6516363794 0.2448993870 -0.1182944810
0.4267145706 0.1939517629 -0.0384104007
0.5150379659 0.1499238044 -0.2777650443
0.6644260539 0.2355317982 -0.1199593291
0.4928374341 0.2161111322 -0.2600000000
0.5745786151 0.2911789453 -0.1895378972
0.6080000000 0.2472065494 -0.2491162513
0.6371507257 0.2584621169 -0.1771227123
0.5839309627 0.2707355520 -0.0151632551
0.5963859326 0.1486449621 -0.0332248107
0.4008355298 0.2007126271 -0.2326536284
0.3468573002 0.2247912345 -0.3253303285
0.3551272985 0.2178957563 -0.2418596185
0.3680823069 0.1704400865 -0.2904996898
0.4412797282 0.2332265000 -0.1431727063
0.5638626837 0.1514835782 -0.2418176903
0.5498195616 0.1372398373 -0.2712398373
0.5216654602 0.2687628819 -0.3045731828
0.5239053750 0.2370428408 -0.3551577083
0.5187355607 0.2308930425 -0.3600000000
0.5382519752 0.2640000000 -0.2918862183
0.5918510614 0.2437063713 -0.2643276849
0.4767337449 0.3048833327 -0.0076907696
0.4200236070 0.2766702580 -0.3413061350
0.4508122141 0.3274195568 -0.0426519464
0.4803216870 0.1898153572 -0.1187880540
0.4347029500 0.1774323500 -0.2855468607
0.5167584193 0.2236587948 -0.2179777340
0.5465025843 0.1631801721 -0.0853337793
0.5922122203 0.1658378370 -0.1618480788
0.4374722114 0.1841450862 -0.0576909889
0.5677678409 0.1389012156 -0.2005515724
0.4046821131 0.1725628668 -0.3232483794
0.6487742482 0.2369807564 -0.0578448873
0.5404172972 0.2782559567 -0.0489198361
0.5864797199 0.1962989381 -0.2875144858
0.5069228325 0.1830344051 -0.2157884353
0.6434123483 0.2492722639 -0.0560129347
0.5544474626 0.1772363507 -0.1581897599
0.3710367082 0.2679127493 -0.0300162317
0.5321274366 0.2444899506 -0.3271762779
0.4935577378 0.2839274298 -0.1750000000
0.4167923721 0.1773999027 -0.2884997569
0.4260853508 0.2288606494 -0.0817615009
0.5519025317 0.1577166958 -0.0342054059
0.4969540013 0.1500919973 -0.2209106081
0.6491086380 0.1847113169 -0.0272284049
0.6048514745 0.1560649304 -0.0995887689
0.6447763374 0.2564377674 -0.1498587336
0.3831850385 0.2300534457 -0.0233274387
0.6344235908 0.2500077174 -0.0436693499
0.5710000000 0.1623551201 -0.3085642927
0.3825441506 0.2481049381 -0.2629673229
0.5502111031 0.1587834596 -0.0440543871
0.4604775228 0.2781056657 -0.1648552194
0.3559975910 0.3220833615 -0.0353661456
0.4921401368 0.1518472338 -0.2150000000
0.4666934090 0.3044232678 -0.1505598527
0.5223465331 0.1710000000 -0.1258737505
0.5432344546 0.2616747762 -0.2918074070
0.4870985562 0.1539014438 -0.2174791293
0.4503419454 0.1690000000 -0.2887819803
0.3288896963 0.2220000000 -0.2967492256
0.5333467948 0.2834754914 -0.0578221306
0.5114837823 0.3002101374 -0.1744985018
0.3182739063 0.1844936561 -0.3032919584
0.5774506666 0.1717511110 -0.2644196319
0.5580636213 0.1430954320 -0.2434016912
0.4177100929 0.1910555937 -0.0076389841
0.5605780542 0.3018251615 -0.0778161279
0.4656190510 0.1692170630 -0.3148079579
0.5208183287 0.2045082775 -0.3600000000
0.4593239540 0.3112154513 -0.1194613717
0.3975004341 0.1955373181 -0.2600000000
0.3394815800 0.1701647502 -0.2986172211
0.4044777929 0.2283088110 -0.0698933019
0.3543861176 0.2161340237 -0.3423426420
0.4914437723 0.2078150116 -0.2597795429
0.4781150949 0.2952507348 -0.1700000000
0.5048805177 0.2284795979 -0.2368658038
0.4648522485 0.1747628046 -0.0580606132
0.4548705419 0.3551883599 -0.0197613031
0.5139937238 0.2066664904 -0.2183437936
0.5778180592 0.1723634320 -0.2057983189
0.3744664616 0.2385103733 -0.2400000000
0.4649604774 0.2205701421 -0.1298974907
0.5178046201 0.2863616744 -0.0575605323
0.5800000000 0.1784034142 -0.2492518214
0.5489092409 0.3096479995 -0.0811771425
0.5505010344 0.2779719278 -0.0387745875
0.5033982144 0.1496702358 -0.2091755896
0.3871244742 0.2559155268 -0.3441776242
0.5535173626 0.3154433013 -0.1066994467
0.5387869364 0.1836297612 -0.1494218381
0.6528615799 0.1908592234 -0.0784941696
0.5086776109 0.2368936829 -0.2355373152
0.4995001579 0.2895766628 -0.0139003984
0.5770068381 0.3053536108 -0.0928596154
0.6455881194 0.2153888143 -0.0493216244
0.4927464101 0.2559617278 -0.2021698165
0.3886191492 0.2346591428 -0.2624661443
0.5701310595 0.2712711606 -0.2417527751
0.5216582839 0.1624605451 -0.0629243120
0.6548239856 0.1918629498 -0.0959498411
0.5068001349 0.2629202344 -0.3217699420
0.3791081873 0.2382616387 -0.0598816600
0.5615873477 0.1617691891 -0.0890138030
0.4634203363 0.2920000000 -0.0528348280
0.3811091379 0.2325138845 -0.3571020790
0.4668751725 0.2908113265 -0.0461178327
0.5891808148 0.2954936134 -0.1573942147
0.5702076885 0.1577646921 -0.0793716187
0.5667477545 0.1631916972 -0.1009881389
0.5108450259 0.1480000000 -0.2122599749
0.3488753268 0.1723770297 -0.3147539605
0.5654570521 0.1686974999 -0.1139916662
0.5284776286 0.1441189865 -0.2032672297
0.5862257670 0.1624888766 -0.1056545645
0.4780472454 0.1646175976 -0.3193210119
0.5593331203 0.1569058846 -0.0585075906
0.4864937413 0.1550000000 -0.2401578048
0.5993974706 0.1633673670 -0.1633674808
0.6173490866 0.1575893414 -0.1114733536
0.4371773392 0.2561537496 -0.1550000000
0.3603032555 0.3411675641 -0.0073702268
0.3316066801 0.1760000000 -0.2970946702
0.3251217373 0.1952022680 -0.3070543146
0.5033220693 0.1663318584 -0.0549355818
0.5776666987 0.3129265804 -0.1226553850
0.5108750794 0.2760000000 -0.2888889428
0.4211209630 0.1777580740 -0.3115549416
0.5246083046 0.1413916954 -0.2222627024
0.6005481222 0.2369336859 -0.2659219018
0.6505854403 0.1714175785 -0.1049426473
0.4927078058 0.2850000000 -0.0476029151
0.3511969667 0.1934933398 -0.2394769398
0.6407335926 0.1694232534 -0.0650549146
0.4681692097 0.1660000000 -0.3016130217
0.3634347191 0.2449793660 -0.2796377341
0.5242262800 0.1900000000 -0.1490419338
0.4761251516 0.3039973614 -0.0659354275
0.5814426376 0.2185708014 -0.3000000000
0.3805189431 0.2292212448 -0.0074942912
0.3915661275 0.1742252738 -0.3182193591
0.4972862483 0.1649958905 -0.0169820923
0.3681926434 0.2581966790 -0.0062733431
0.5216166604 0.1443833396 -0.2183683052
0.5901300183 0.2692456626 -0.0129395538
0.6137585209 0.1512743803 -0.1825701122
0.3894986043 0.2615692263 -0.2657744817
0.5724531290 0.1644218817 -0.2115312948
0.6273374406 0.1633896511 -0.0168936601
0.5519529561 0.1674577444 -0.0976163934
0.5793525825 0.2773715794 -0.0369886927
0.6614797127 0.2294572075 -0.0769074713
0.6404717402 0.1693173458 -0.0238213507
0.3978830909 0.1759958116 -0.3450704504
0.6052284994 0.2480591118 -0.2580390273
0.6233393773 0.1535427115 -0.0390896226
0.6028095032 0.2123140367 -0.2267252255
0.5442690000 0.1819979307 -0.1489167271
0.3788686279 0.2343382535 -0.0560971649
0.4972992021 0.1703576971 -0.0362258630
0.5759496620 0.1705472454 -0.3037626462
0.5589632104 0.3021227003 -0.1798926116
0.3923076514 0.2716525274 -0.3521794190
0.4076658895 0.1845894017 -0.2322235176
0.5306623288 0.1416753423 -0.2591398469
0.6317346784 0.1574360678 -0.0287744819
0.4426818979 0.2385019737 -0.1305301702
0.4187818367 0.1972148846 -0.0312017699
0.4905239992 0.2890610496 -0.0269831444
0.3836928134 0.1756352145 -0.3245174098
0.3974406047 0.1854054023 -0.2600000000
0.5181333154 0.2634888555 -0.3141852409
0.6459363489 0.2048989020 -0.1800000000
0.3305613967 0.2128739029 -0.2307494576
0.6553650279 0.2176494483 -0.0246891933
0.5904356170 0.1911534255 -0.2057701523
0.6143152402 0.2528040379 -0.2271089752
0.5042970646 0.2402382024 -0.2560520716
0.5971621041 0.2666860618 -0.0570414745
0.4472707988 0.3044470113 -0.1406470786
0.5291700432 0.1619030036 -0.0375733058
0.6521895374 0.2252481509 -0.0467326474
0.3935614375 0.2395876033 -0.2300000000
0.5772341162 0.1716243099 -0.2883137372
0.5472018870 0.3155475093 -0.1587510062
0.4228928940 0.2590962273 -0.2811770451
0.4446751874 0.2297788328 -0.1150000000
0.6333905988 0.1682180539 -0.0416182685
0.5966701603 0.2699077877 -0.1873700867
0.4912127481 0.1700896731 -0.0559430994
0.4714010448 0.2582168733 -0.3180421832
0.3666200369 0.2771511837 -0.0296083783
0.5866014080 0.2650845636 -0.2372855628
0.5809733118 0.1368232501 -0.2000000000
0.5592366053 0.2092885595 -0.3303516670
0.6085872087 0.2874642315 -0.1161836214
0.3912495312 0.2110000000 -0.0159522011
0.6112935585 0.2545366709 -0.1922192857
0.5626326273 0.1757483171 -0.1583095278
0.3356538437 0.2238303691 -0.2935364709
0.6082644864 0.2605841126 -0.0094649517
0.4380828892 0.2465910477 -0.1217890851
0.3341112232 0.1705907591 -0.2857019823
0.5719897911 0.1636496518 -0.2175859790
0.5413792439 0.1593637274 -0.0644056683
0.5974720150 0.2019626867 -0.2259565119
0.5788002741 0.2126497229 -0.2964061339
0.3873022341 0.2091371520 -0.3581511170
0.5475903739 0.2585999924 -0.2880000573
0.3973823998 0.2110000000 -0.0192725875
0.4011407333 0.2004798017 -0.0209916757
0.5937686988 0.2720108557 -0.0349457217
0.4863089379 0.1693403168 -0.0590837474
0.6512142660 0.1881292754 -0.1076717777
0.5370855329 0.1389144671 -0.2598488970
0.4473574483 0.2711437763 -0.1652185061
0.4931720204 0.2667780184 -0.3044289682
0.5840888828 0.3000677998 -0.0822881425
0.5631124241 0.3109775854 -0.1081833174
0.5796532459 0.1780753224 -0.2835208475
0.6017591267 0.2657303814 -0.0179746386
0.5628578418 0.2247688751 -0.3200000000
0.4340011455 0.2239466402 -0.0974318381
0.5230496708 0.1448395133 -0.2636855338
0.3584684421 0.3180917330 -0.0241001986
0.3484328891 0.3360411654 -0.0426804606
0.4583059995 0.1727424405 -0.3593561012
0.5232601527 0.2857398473 -0.0132505224
0.3489919256 0.2985292406 -0.0157205565
0.5412496013 0.1640000000 -0.0736794438
0.6138807044 0.2253285326 -0.2227608591
0.6168252362 0.2373936051 -0.2445643346
0.4541297722 0.2980013057 -0.1255058210
0.5893631899 0.2521700415 -0.2604482371
0.5224519994 0.3181157327 -0.1316813334
0.5865210885 0.1869578231 -0.2120451516
0.4354672373 0.2770856831 -0.3534916921
0.6174141126 0.2320235209 -0.2521144386
0.5834253315 0.3114928283 -0.1259292272
0.4274166112 0.2752920455 -0.3405670658
0.6363588837 0.1601918137 -0.0991424573
0.5871719245 0.1646911612 -0.1184558059
0.6102406836 0.2433194873 -0.2558449977
0.4619616832 0.1814906215 -0.0791689194
0.5186280518 0.2102201430 -0.3600000000
0.5716052263 0.1713136824 -0.1365990906
0.5343509845 0.1860191263 -0.1545592765
0.6316694798 0.2308091527 -0.2009860317
0.4575654909 0.1761232263 -0.3265564143
0.3921999960 0.1810179509 -0.3533062325
0.4719964236 0.1773789870 -0.2595277564
0.6470441381 0.2116620054 -0.0600551726
0.6191254120 0.2318756867 -0.2233181810
0.4185327311 0.2553093761 -0.2958738250
0.5197643432 0.1497452189 -0.3189882991
0.4287468050 0.2814119750 -0.3521462245
0.4393639418 0.2302445299 -0.1124475620
0.5605512539 0.1995853903 -0.3260705934
0.5960000000 0.2025293570 -0.2677976483
0.3992694717 0.2429896971 -0.0718780311
0.3538995986 0.1877237024 -0.2570294426
0.4578216774 0.1898315414 -0.0706425084
0.4302896341 0.2387258806 -0.1024049765
0.5707901794 0.3067736547 -0.1082922647
0.4633472332 0.3044440741 -0.1227316358
0.4344492017 0.1730000000 -0.3289426128
0.6540680467 0.1959395990 -0.0763457932
0.3677790536 0.2764473201 -0.0226604417
0.4403691959 0.3036135858 -0.1408874033
0.5901539954 0.2819338191 -0.1814019544
0.5941036362 0.3050088185 -0.1382919277
0.6171895088 0.1632318431 -0.0447658077
0.6458285682 0.2170344187 -0.0572240165
0.4324067704 0.1899084868 -0.0643207768
0.5307105403 0.1410000000 -0.2435771043
0.6180000000 0.2606187367 -0.1829178086
0.3874106890 0.1764082242 -0.3491849415
0.5806072002 0.1796072002 -0.2753064045
0.5073061358 0.1866110446 -0.1780105480
0.5004333929 0.1747741563 -0.2139369151
0.5198412945 0.1833940909 -0.1695849061
0.3789460072 0.2258130869 -0.0566559939
0.3870604201 0.2536582848 -0.3157320513
0.6146701754 0.1629987924 -0.0531794306
0.4399687078 0.3301185605 -0.0644336469
0.3700773099 0.2720255376 -0.0253865495
0.5449260966 0.1636876954 -0.0696529949
0.6435451884 0.2360947498 -0.1537941321
0.5465027033 0.1369945934 -0.3086283139
0.4732043704 0.1804502227 -0.1029182359
0.4432785516 0.3352699494 -0.0610985489
0.5171586404 0.3161163910 -0.1572496862
0.3984334630 0.2366126683 -0.0667897569
0.5065491893 0.1661884004 -0.2145423423
0.4839628564 0.2934814670 -0.0612962890
0.5394362455 0.1360000000 -0.2105535088
0.5599593091 0.1662080971 -0.1004185155
0.4201824091 0.2684510516 -0.1001762669
0.4311877219 0.1849230849 -0.0604183800
0.4231230242 0.2548732753 -0.1000000000
0.5198981848 0.1428697328 -0.2250000000
0.5921885362 0.1650158007 -0.1223787030
0.4511270343 0.2326380285 -0.1292788301
0.4058810851 0.2456630627 -0.2409986969
0.6239285198 0.2471577671 -0.2149724047
0.6371529639 0.2602407095 -0.1064644359
0.4175781537 0.3167956303 -0.0629076634
0.5137541713 0.2853426010 -0.0521470113
0.4195973781 0.2807936035 -0.3589544444
0.4948615768 0.2962004674 -0.0639366062
0.5880286940 0.1634021107 -0.1120105534
0.5571263346 0.1424073930 -0.2205501942
0.5545276082 0.1894545449 -0.3492126803
0.6441510990 0.2201358934 -0.1627102058
0.5436619879 0.1404965867 -0.3001513044
0.4365856824 0.2154381802 -0.1050106757
0.5971138997 0.2686196692 -0.2119016538
0.4737441558 0.1727519481 -0.3420198667
0.4882211838 0.2903368817 -0.0208359721
0.3614118063 0.2294164075 -0.2547645053
0.5896916182 0.1900374273 -0.2640737109
0.4642512435 0.2067401035 -0.1900000000
0.6147429815 0.1674887777 -0.1377055892
0.6513866245 0.2412950440 -0.1319594699
0.4443857290 0.1718763657 -0.3044559596
0.5778848041 0.3063032033 -0.1121416970
0.4202837811 0.2660000000 -0.3250427204
0.6040642615 0.2840207374 -0.1677948420
0.4478975495 0.1708488981 -0.2992444906
0.4651172481 0.2253070804 -0.1254721180
0.5932627729 0.1506689151 -0.1996727475
0.6009962549 0.2088200328 -0.2058388560
0.5670833118 0.2729166882 -0.2569831288
0.5233481989 0.1449129503 -0.2735495048
0.5488592435 0.1389561459 -0.2769743509
0.5745962612 0.2820373778 -0.0627442626
0.6399995385 0.1818239737 -0.1350814459
0.4302929156 0.3112531348 -0.1015789609
0.6258916833 0.1699474164 -0.1334618943
0.3724720521 0.2579949424 -0.0157460710
0.5588742138 0.1995719066 -0.3339313611
0.4750996386 0.3062010532 -0.1573578187
0.5924569559 0.1920949266 -0.2348412904
0.5891524797 0.2245951996 -0.2794085126
0.6498087404 0.2149309919 -0.1788797822
0.5990000000 0.2052774368 -0.2423917234
0.3664459960 0.1784052055 -0.2613429991
0.4718844703 0.2032015054 -0.1779276406
0.4697937779 0.1874186388 -0.2536770368
0.5417911416 0.2275835083 -0.3412223973
0.4702344714 0.2742878575 -0.1961375540
0.5529548641 0.3030374513 -0.0769471796
0.5282676282 0.1690000000 -0.1078867698
0.4684408029 0.3196930049 -0.0280396482
0.6268372391 0.1888028866 -0.0104701602
0.4641859522 0.1806660256 -0.0855949558
0.6157487851 0.2274728344 -0.2086202462
0.5437558580 0.1644146094 -0.0903045891
0.6313792700 0.1591431739 -0.0563224729
0.5761966809 0.1729273100 -0.3091047600
0.4280948522 0.2618481658 -0.2767567557
0.5451241691 0.1582549236 -0.3321681629
0.6124707935 0.2914377940 -0.1211177776
0.6178435286 0.2790077942 -0.1130501999
0.5906271568 0.2944499397 -0.1691250216
0.4062084197 0.2867176407 -0.1090199689
0.5872494474 0.2613249495 -0.2561215070
0.3954293267 0.1763217625 -0.3019023021
0.6028441940 0.2128441940 -0.2158647081
0.5949892742 0.2640000000 -0.2325296218
0.6445112668 0.1733233981 -0.0215043227
0.6267392088 0.2786934527 -0.1752535091
0.6248262716 0.1669724838 -0.1690993215
0.5221926028 0.1508481357 -0.3071203394
0.4350886310 0.2490417855 -0.1405351315
0.4583987951 0.2590000000 -0.3241889257
0.4703751068 0.3138332775 -0.1177091462
0.3905693869 0.2211883222 -0.0307029438
0.6240996849 0.1743291535 -0.0520815064
0.3840491364 0.2513475873 -0.3093112000
0.5166597742 0.1430675613 -0.2314374299
0.5943620179 0.1547848384 -0.1760216594
0.5145989472 0.1652685246 -0.0356713115
0.4795030939 0.2697085559 -0.2719334206
0.3720512855 0.2493756637 -0.0485957627
0.5126747699 0.1930537943 -0.2101024135
0.4357236976 0.1777658391 -0.3488291957
0.4939472170 0.1538169713 -0.2624651678
0.5732438638 0.1673822426 -0.3212602271
0.6253514813 0.2685251534 -0.0752657037
0.5780700083 0.2760172772 -0.0526907274
0.5051204216 0.1591449495 -0.1971682861
0.5679669498 0.3124629848 -0.1514251637
0.5079410031 0.1585474852 -0.3238687129
0.6250316189 0.2705879204 -0.0921433191
0.6378578460 0.2087111500 -0.0064342337
0.4580767531 0.2558621672 -0.3133858874
0.4988152456 0.1729774165 -0.0877508844
0.4524142691 0.1776986632 -0.3391535408
0.6096523394 0.1514507890 -0.0397277477
0.6053806767 0.1587730308 -0.1140737501
0.6434505656 0.2541724659 -0.1567731611
0.3784903210 0.2501698930 -0.0237431435
0.6074945455 0.1475521141 -0.1788986905
0.6385674002 0.2411305039 -0.1838128946
0.6210575777 0.1584528426 -0.1175521012
0.3566521742 0.3121959499 -0.0280060983
0.4331905828 0.3037992687 -0.1396511840
0.4115797724 0.3347999500 -0.0494224001
0.5268974938 0.2550737425 -0.2209187552
0.6487553014 0.1716680148 -0.0881314438
0.6483807868 0.2171740305 -0.0166065063
0.4742632367 0.2890523988 -0.0441047975
0.5536236319 0.1395002635 -0.2262474809
0.3985561635 0.2764172620 -0.1497761719
0.5830548427 0.1713365034 -0.1582173078
0.6299456309 0.1524354839 -0.0261915890
0.6549943984 0.2163327292 -0.0342513424
0.3498308024 0.2952324075 -0.0547024206
0.3173012434 0.2072797115 -0.2940628828
0.6085152611 0.1450000000 -0.1853752270
0.6570355864 0.2317533650 -0.1172555525
0.4374087005 0.1906857037 -0.0477357595
0.4591301835 0.2172097848 -0.1173779443
0.3780830658 0.2379053825 -0.0381905886
0.3766367555 0.2413146798 -0.2503408602
0.6064313444 0.2164313444 -0.2479950037
0.3263720158 0.2196617628 -0.3060086685
0.5585780791 0.1557954557 -0.0641822876
0.6226655852 0.1587023475 -0.1307262102
0.4855117253 0.1695126353 -0.0482085935
0.3863735611 0.1738947495 -0.3120215821
0.5975316918 0.2010211279 -0.2393416796
0.4024241970 0.2186425586 -0.0660688027
0.6351249535 0.2280594549 -0.0060706787
0.6510867353 0.2228663773 -0.1783894746
0.6413966150 0.1620318136 -0.1034821433
0.5280823512 0.2496189366 -0.3272370576
0.6301853669 0.1775045987 -0.1801544725
0.5279827205 0.1410000000 -0.2373428172
0.4042897450 0.2650200086 -0.3600000000
0.6284656619 0.1537333159 -0.1177767498
0.5673525984 0.3112739580 -0.0909635321
0.5740961001 0.3040213556 -0.1634507598
0.4451375972 0.1843417969 -0.0486603497
0.5052862893 0.1731167336 -0.0868409704
0.5580000000 0.1443994414 -0.2257946049
0.5749616718 0.1617676343 -0.0866219242
0.4540899628 0.1731755679 -0.3232277712
0.5520631045 0.1360736220 -0.2447735841
0.3316164746 0.1928847234 -0.3107712874
0.5756881048 0.2262731790 -0.3138939549
0.5127459596 0.1450000000 -0.2424439639
0.3528684963 0.3235247561 -0.0105729003
0.4198277232 0.2587685438 -0.2884275812
0.5869505306 0.2466313881 -0.2638999534
0.5171025519 0.1511859051 -0.2957204088
0.6435862886 0.2381565773 -0.1783432692
0.4004590190 0.2713182429 -0.3593617431
0.4222041678 0.1931958170 -0.0547956853
0.3693739135 0.2497064854 -0.2827064854
0.4980108096 0.1622257387 -0.3261021200
0.5730522450 0.1708276203 -0.3297160828
0.6439587281 0.2078091227 -0.1699586665
0.5588225077 0.3003462945 -0.1883657363
0.4374245275 0.2438759718 -0.1421466415
0.4405908820 0.2125401922 -0.0949801882
0.5622731860 0.1559462957 -0.0532386432
0.6610515055 0.2263817727 -0.1194506994
0.6306038607 0.1629311406 -0.0256597846
0.6594228849 0.1997249480 -0.0309618585
0.3573812886 0.3040223724 -0.0148296095
0.5429245731 0.2719338712 -0.2599535097
0.4897180543 0.1695007142 -0.0203972619
0.4814357711 0.1730000000 -0.0736281590
0.6374588808 0.1970306287 -0.1665411192
0.6204687868 0.1564464075 -0.0880486133
0.4846555099 0.1630077806 -0.3173791560
0.4668157895 0.1878024476 -0.0746818643
0.4242829352 0.3076931465 -0.1019880507
0.3465292224 0.3256929792 -0.0526461120
0.4622172847 0.3142268793 -0.1088656037
0.4609971469 0.3271917528 -0.0322938208
0.4529858147 0.3236382709 -0.0391437513
0.4869155081 0.1704196205 -0.2279174942
0.6328370761 0.1684941838 -0.0795926903
0.5183899231 0.2483287822 -0.3348320729
0.4545938664 0.3449592030 -0.0381037043
0.4659881634 0.2115372394 -0.1835154311
0.6442907358 0.1652677898 -0.0778119631
0.6233551734 0.2651594065 -0.1783663957
0.3785901200 0.2386067797 -0.2688096544
0.4150018875 0.2800021059 -0.3500000000
0.4830770363 0.1582819758 -0.2536700254
0.4114072861 0.1756068890 -0.2859266696
0.6011339749 0.3008236881 -0.1371730979
0.6323657021 0.1679781829 -0.1622241665
0.6269542255 0.2452952886 -0.2100762908
0.4682178387 0.3075258551 -0.1341017631
0.3554844591 0.2249255196 -0.2569289679
0.6285309833 0.1566230492 -0.1339122925
0.5273111886 0.2830802760 -0.0572575371
0.4074316337 0.2187637717 -0.0690357443
0.5746066238 0.3051862132 -0.0871017493
0.3602198875 0.3234837994 -0.0657624297
0.5111688084 0.1758388571 -0.1264916573
0.5289257108 0.2646598928 -0.2366497319
0.6367251963 0.1755148672 -0.1616581740
0.5448469878 0.1578196021 -0.0358929645
0.4055259310 0.1721126349 -0.3317073906
0.5985438491 0.2153565785 -0.2705655348
0.5753909921 0.1688546562 -0.2460589711
0.5720685501 0.1525822218 -0.0556962970
0.5115509220 0.1449650417 -0.2324100786
0.5479552878 0.1555027863 -0.0582930139
0.4050137619 0.1712907378 -0.2853107595
0.5347201475 0.1720118827 -0.3559383404
0.4325742175 0.1875567623 -0.0535711004
0.5870284201 0.2019983455 -0.3095847284
0.5315681106 0.1640406362 -0.0790955307
0.6053247070 0.2603960775 -0.2213258919
0.6497414370 0.1775677765 -0.0845399522
0.3593045961 0.2235637668 -0.2468730022
0.3501688241 0.3108620180 -0.0390152158
0.6215862810 0.2532449146 -0.2006169836
0.5282367398 0.1808910679 -0.3593129223
0.5734430919 0.1598775533 -0.0450000000
0.6040362756 0.1584861875 -0.1082248591
0.6410481571 0.2466239254 -0.1124080928
0.5545395479 0.3180000000 -0.1463735616
0.4089342476 0.2121156812 -0.2600000000
0.3957153130 0.1979615507 -0.2312204406
0.5650662960 0.1541936063 -0.3203314800
0.5407137965 0.1380000000 -0.2414582098
0.4827201144 0.2625905922 -0.1950213511
0.5480537235 0.2138340904 -0.3419919016
0.4962640889 0.1577469957 -0.3168674893
0.5626647995 0.1589833986 -0.0766449239
0.3530315038 0.2057892249 -0.3400262532
0.6401983316 0.2602448438 -0.1164494208
0.3967515526 0.2816680094 -0.1500000000
0.4994660213 0.2911795275 -0.0585001588
0.3922750860 0.2448771946 -0.0700045884
0.6029672790 0.2129672790 -0.2532712563
0.3188643090 0.1852380622 -0.2907050133
0.6023843725 0.1686691070 -0.1435207807
0.5440904480 0.1663747892 -0.0970041627
0.5046228057 0.1733311262 -0.1041240347
0.4932401986 0.1720261495 -0.3600000000
0.5902934360 0.1995821969 -0.3004890600
0.5132034370 0.2501498460 -0.3398126925
0.3224675672 0.1887010263 -0.3065672251
0.4702034138 0.1910665940 -0.2450000000
0.5166563659 0.1447764620 -0.2567562927
0.3542447741 0.3249329465 -0.0262238706
0.4073947151 0.2048571714 -0.0290129622
0.4744437030 0.2603858023 -0.3005101846
0.3802723458 0.2489227827 -0.3135650065
0.3968856199 0.3058379434 -0.0937607163
0.4734987943 0.1819603363 -0.2050000000
0.4310596644 0.1908695000 -0.0491518776
0.5184851848 0.2529160427 -0.3290839573
0.6563767491 0.2232965141 -0.0242209363
0.5673976733 0.1559336942 -0.0501105097
0.5829597165 0.2022483840 -0.2947650644
0.6014848548 0.2954921481 -0.1184921481
0.4759948336 0.3060519865 -0.1288348722
0.4864524496 0.2646351790 -0.3182939738
0.6220638268 0.2367548338 -0.2212123813
0.4566272765 0.3447260680 -0.0329373917
0.4844186469 0.1760249862 -0.1042549290
0.6370301224 0.2056222490 -0.0527680834
0.5599011159 0.3168047302 -0.1519220206
0.6489981255 0.2386758984 -0.1771344264
0.6063329221 0.2641247795 -0.2056466781
0.4282644673 0.3575438740 -0.0650000000
0.5221807427 0.2817823200 -0.0355029579
0.3510205592 0.2775555940 -0.0613636237
0.4542615812 0.1763859587 -0.3450000000
0.4442007207 0.3130527232 -0.0760763484
0.5647432407 0.3183573253 -0.1375650805
0.5084621421 0.2926873795 -0.1989252205
0.5985488453 0.2702207176 -0.0248634315
0.5429916824 0.2690000000 -0.2385048883
0.6344278182 0.2561292584 -0.0963681064
0.4893833671 0.1604597259 -0.3165359109
0.3880513288 0.1777037249 -0.2995851909
0.5766126847 0.2883286101 -0.0668980144
0.3527416169 0.1883805779 -0.3442714130
0.5736717529 0.2310102236 -0.2993255103
0.3507729060 0.2271898033 -0.3314459579
0.5005950024 0.2636434440 -0.3240555171
0.3554389135 0.3366776991 -0.0102449859
0.5792809892 0.2732097404 -0.0127252614
0.5372480768 0.1841662451 -0.3550484605
0.6527010170 0.2156121834 -0.0671262713
0.4363062369 0.2458063059 -0.1506979660
0.6416416273 0.1604619830 -0.0823007555
0.4719157842 0.1740842158 -0.3485219199
0.5114514305 0.3197982682 -0.1463799542
0.6090986574 0.2810105853 -0.1109577201
0.6018325283 0.2645437996 -0.2110394534
0.6561307393 0.2386353249 -0.1302969406
0.5937411020 0.2709374921 -0.0209821409
0.5094238018 0.1710814190 -0.0901816334
0.6131773709 0.2631676710 -0.0515642957
0.6315510518 0.1750699574 -0.1532507513
0.6018934290 0.1500889563 -0.0391957659
0.6006382297 0.2640000000 -0.2254285617
0.5168767988 0.1513270008 -0.3023561366
0.3675247341 0.1857689412 -0.2457500183
0.5283736326 0.2766263674 -0.2723945072
0.6429953522 0.1833521792 -0.1266805094
0.4033450274 0.2750234559 -0.0900000000
0.6274651135 0.1836162271 -0.0537756217
0.5969531470 0.3041174905 -0.1277140361
0.3247728345 0.2143033036 -0.3082466091
0.5090000000 0.2312877259 -0.2306151749
0.4320131782 0.2222123895 -0.0862622705
0.5993120327 0.2640000000 -0.2181927511
0.5978469716 0.2459078702 -0.2618176182
0.3831105166 0.2528549154 -0.2664536657
0.5877584756 0.1670234633 -0.1281516158
0.6345246084 0.1976343404 -0.1408743473
0.5059477677 0.2155857147 -0.2300870538
0.4442870824 0.1691298501 -0.2708209961
0.6170770816 0.2290770816 -0.2359424650
0.3705373699 0.2375528920 -0.2511202959
0.4615536071 0.1764326461 -0.3416895780
0.6219619441 0.1611499458 -0.0341764744
0.5651180408 0.1547832973 -0.0595577000
0.3738999392 0.2343266131 -0.3535889167
0.4329596157 0.2611328310 -0.3233622570
0.5009625625 0.2109858673 -0.2392231738
0.6410466253 0.2364515013 -0.1477635297
0.6182772618 0.1483457513 -0.0298904311
0.3856418732 0.2463648492 -0.2441328738
0.5098464577 0.2592404085 -0.3257750869
0.3806736891 0.2515347378 -0.2968854969
0.3518120666 0.2746096374 -0.0526915429
0.6270279441 0.2397266022 -0.0170262905
0.3337890434 0.2183079997 -0.3187511309
0.4402415062 0.3113345904 -0.0708364760
0.4494929864 0.2406437750 -0.1243834010
0.5151956982 0.2702071637 -0.3074132206
0.4498390831 0.2333826721 -0.1194441108
0.4525944840 0.2569780623 -0.3152787529
0.4252384504 0.2433121739 -0.1004743677
0.5877286632 0.1877002142 -0.3119439351
0.5868899246 0.2723504087 -0.0444944511
0.6427284446 0.2098462229 -0.0163264638
0.5271616401 0.2387317686 -0.2131986333
0.5583933719 0.1768750167 -0.1538131962
0.6080000000 0.2204320799 -0.2431746535
0.6467381044 0.2247873507 -0.1693933801
0.6358081123 0.2581319533 -0.1520057945
0.4794094187 0.1620000000 -0.2986097184
0.5078228945 0.1757002646 -0.1204005292
0.4766537374 0.3107067542 -0.0100459022
0.4271655627 0.1766677143 -0.2997905683
0.3824254727 0.2188221895 -0.0067583814
0.5829760612 0.3049417729 -0.1655552370
0.3784684311 0.1732581762 -0.2634902717
0.6374110070 0.1896606754 -0.1550000000
0.6343415698 0.2687879408 -0.1754901960
0.3692128522 0.3378982456 -0.0297202795
0.6299608551 0.2375674067 -0.1898656894
0.5319645444 0.1631399558 -0.0451289619
0.4851081163 0.3044031229 -0.1664979124
0.5402600500 0.1572433370 -0.0317278038
0.5825368350 0.1815368350 -0.2877064199
0.5475128857 0.2570000000 -0.3043834549
0.4097849072 0.3398587817 -0.0464975294
0.6500440265 0.1721529417 -0.0982189179
0.4463017042 0.1711870464 -0.3128714654
0.4143025357 0.2013933388 -0.2506505618
0.5863064711 0.1873870578 -0.2051693020
0.6279797558 0.1709167386 -0.1510778037
0.6404367102 0.1728752300 -0.0343830298
0.4657501220 0.1639047483 -0.3111309634
0.4882820460 0.1727474216 -0.0691895633
0.6497214747 0.1962738256 -0.1783947006
0.3999007802 0.2288864383 -0.2600000000
0.5389586442 0.2660000000 -0.2302894414
0.3453102013 0.1688345540 -0.2966849333
0.6443424412 0.1925046761 -0.1312064373
0.5263100537 0.1815952899 -0.1693533260
0.6366502008 0.2521950606 -0.1504713958
0.3809241578 0.2407185338 -0.0328342470
0.5128522880 0.2744025396 -0.2984231294
0.3526513991 0.3314994400 -0.0194111946
0.5855243294 0.2743706487 -0.0354416724
0.6413407280 0.2529331760 -0.1650000000
0.4769439167 0.2944786591 -0.0328567890
0.5800741598 0.1650852999 -0.1127132497
0.3582081210 0.1967777828 -0.3448050174
0.4887742153 0.3003837707 -0.0647650115
0.6256551033 0.2533828649 -0.1881799601
0.5905200394 0.1912800591 -0.2511008570
0.4686036272 0.1701066963 -0.3207398908
0.6272498676 0.2496269742 -0.0398944089
0.4929144081 0.1623257336 -0.3212401417
0.5356828468 0.1545770344 -0.3330319818
0.4313016418 0.2975027552 -0.1397094966
0.5194379181 0.2310067729 -0.2242701366
0.4748136324 0.1879674572 -0.2050000000
0.4280047317 0.3555571329 -0.0140714452
0.6443920832 0.2317094332 -0.0446003190
0.6307787978 0.1498818133 -0.0203686704
0.5835490183 0.3073499648 -0.1206697342
0.4194518216 0.1759589572 -0.3297065866
0.6341663592 0.1875004498 -0.1905955187
0.4447007283 0.3239554951 -0.0629473303
0.3564351229 0.2876278627 -0.0380173389
0.4144895611 0.1729827092 -0.3403565319
0.5129242271 0.2773523718 -0.2819874881
0.5207814281 0.2624860543 -0.2452617335
0.3864264588 0.2808188388 -0.0792563231
0.3851570385 0.2293282702 -0.0182002524
0.4402752685 0.1739201895 -0.3430672982
0.6610899418 0.2434357611 -0.1291503446
0.6279319413 0.1633292762 -0.0449721117
0.4238327872 0.2495867137 -0.0974918087
0.4120247125 0.3077545942 -0.0856404453
0.5208660858 0.2963474707 -0.1924967344
0.4305872603 0.3125152149 -0.0536713695
0.3929171238 0.2277164888 -0.0545828890
0.4862050455 0.2027350922 -0.1723320770
0.4477047490 0.3385413339 -0.0577504107
0.5694337614 0.1589966045 -0.0848051292
0.6291208913 0.1719707134 -0.0389330557
0.5961297414 0.2776379613 -0.0660919186
0.6096044350 0.2222033262 -0.2118395919
0.4690119279 0.3393184763 -0.0233479792
0.6245017341 0.1729341685 -0.1950000000
0.4952599971 0.2063584327 -0.2462960866
0.4841000647 0.1714000071 -0.0379999647
0.5922180456 0.2754662222 -0.2005181583
0.6200359016 0.1709649014 -0.1494685022
0.5656344657 0.2972690005 -0.0741110985
0.3911515853 0.2159363504 -0.0362735321
