0.5800504324 0.1660000000 -0.1177323234
0.5415321196 0.2685321196 -0.2352891586
0.5885137535 0.2370842994 -0.2699053146
0.5140798852 0.1981990755 -0.2150000000
0.6453633371 0.2564548719 -0.1673750330
0.5395584837 0.1581757031 -0.0613681594
0.6623286579 0.2364499179 -0.1275178422
0.5234160937 0.2855839063 -0.0139601652
0.5480625570 0.1371616192 -0.2308080959
0.6239794581 0.1882117869 -0.0084595890
0.3684408410 0.3370198206 -0.0295694698
0.4764590335 0.2676695924 -0.2733864801
0.4584362315 0.3458688270 -0.0223074557
0.3554505720 0.2412104082 -0.2320173470
0.3544365480 0.1995262925 -0.3407182740
0.5004582141 0.2929938358 -0.0610197083
0.3745478239 0.2550050304 -0.0144347799
0.4516381250 0.3195675758 -0.0427853225
0.5251966475 0.2522918652 -0.2203771933
0.5399095211 0.2847273284 -0.0596104692
0.3786123943 0.1729670601 -0.3143057776
0.4591452416 0.1991043134 -0.1914082992
0.4559627070 0.1772244812 -0.3290640590
0.6309884019 0.2354242675 -0.1928148166
0.6264548663 0.2430914438 -0.2104383689
0.4102742785 0.2954158541 -0.1476402431
0.4730786662 0.1804414452 -0.1024943179
0.4864479279 0.2128776056 -0.1617381780
0.5771262722 0.2150300462 -0.2916065525
0.6232096883 0.2379462511 -0.2098494188
0.5788012290 0.2275834001 -0.2908078972
0.5704996735 0.1609362705 -0.0977661007
0.6337062895 0.2364268764 -0.1858079195
0.4608617273 0.1739945859 -0.0461491008
0.3550356800 0.3403256334 -0.0195853138
0.3606012655 0.1805497876 -0.2341642110
0.6563204526 0.2343703379 -0.1767768026
0.5699829874 0.1609829874 -0.2335999075
0.5456599069 0.2728169065 -0.2585404553
0.4901637359 0.1612494012 -0.3050620370
0.4206490368 0.2771510177 -0.3401999455
0.5806089130 0.1775710493 -0.3103756310
0.5056890348 0.1560592707 -0.1996355497
0.4014657018 0.2289790224 -0.2600000000
0.4175369394 0.2792972619 -0.3590692424
0.3608247970 0.3491845021 -0.0196961381
0.4382670012 0.2970012120 -0.1418472688
0.5101515056 0.1552306478 -0.3139845639
0.6442015572 0.2430964816 -0.1129715157
0.3643932171 0.2535392370 -0.0475955689
0.5653439935 0.1763778992 -0.1432228161
0.6540030862 0.2253161177 -0.0552470346
0.4700281679 0.2654678295 -0.1992110804
0.5658694896 0.3143689365 -0.1145240163
0.6555646620 0.2291942877 -0.1336369227
0.5228132468 0.1473307272 -0.3001513116
0.4939879217 0.1513322507 -0.2388615411
0.5897853363 0.2814786226 -0.1823722513
0.4015087140 0.2694828418 -0.3600000000
0.3749113610 0.1728768631 -0.3192235493
0.4124301436 0.1993105651 -0.0398050002
0.4813265456 0.1765720791 -0.2302492608
0.6308484071 0.2670387592 -0.1022644267
0.6505154616 0.2686878251 -0.1245154616
0.4352010000 0.2758282238 -0.3450427621
0.3979652183 0.2863283098 -0.1424710153
0.5124271158 0.1549600740 -0.2000199630
0.5669501077 0.1638004309 -0.3282082358
0.6228230583 0.1913288643 -0.1976178462
0.6482579393 0.1977768068 -0.1790357364
0.4650343400 0.1649570688 -0.2893364707
0.4505718020 0.1759526763 -0.3419261817
0.6069434321 0.2647630335 -0.0568040643
0.5222528041 0.2574836837 -0.3213748692
0.5719645370 0.1728428943 -0.1381728595
0.6483033744 0.1910316854 -0.0760414082
0.5131906380 0.1480000000 -0.2192747486
0.3892124979 0.2126941730 -0.0076770816
0.5340134374 0.2456623511 -0.3236462304
0.5828318237 0.1817829433 -0.2252444022
0.5910923144 0.1921384716 -0.2712934857
0.3646857795 0.2746823235 -0.0360711225
0.5799223204 0.1758705341 -0.2545744525
0.6381119868 0.1870764214 -0.1379117296
0.3986820508 0.2356805819 -0.0670399249
0.5972383419 0.2016511225 -0.2527786069
0.4086465302 0.1792930604 -0.3579646531
0.4718714098 0.3309788660 -0.0254791510
0.3774867780 0.2514556514 -0.2699740612
0.6120225993 0.2213781844 -0.2055675316
0.5227660015 0.1710000000 -0.1343919368
0.4485824049 0.1761237786 -0.3360676644
0.4558668484 0.3235403734 -0.0359399328
0.5716292849 0.1498154635 -0.1987595773
0.5465314851 0.1548309322 -0.1950000000
0.5447879286 0.1679816910 -0.1189828853
0.3597979525 0.2930635180 -0.0093689911
0.6264944675 0.2587599282 -0.1790751314
0.4149101747 0.1934199676 -0.2400000000
0.6040052166 0.1475338483 -0.0319352394
0.5456423222 0.2593736954 -0.2904451231
0.5841862974 0.3079693810 -0.1219961497
0.5465507789 0.1586957435 -0.3347597950
0.6269542051 0.2439178090 -0.1945916139
0.5018244905 0.2292163270 -0.2504786031
0.4405137472 0.1726801463 -0.3011716620
0.5027266602 0.1622679950 -0.3500133620
0.6583509489 0.2409511310 -0.1195885500
0.5118544333 0.2468059635 -0.3591104748
0.5440094742 0.3168317010 -0.0880528349
0.3470853292 0.2747672707 -0.0589149486
0.6471305255 0.1889250438 -0.0951305255
0.4521126823 0.1690000000 -0.2810185332
0.5687852100 0.2907985820 -0.0679864933
0.3728089136 0.2473315879 -0.3500000000
0.3542682010 0.3354012552 -0.0231530780
0.6095555513 0.1562082688 -0.1080206720
0.6408636696 0.2368344670 -0.1475177808
0.4650759827 0.2122224567 -0.1195799922
0.4996074812 0.3131269688 -0.1312987189
0.4788864489 0.1721878064 -0.2430530691
0.5638381280 0.3123573508 -0.0905859723
0.5928173787 0.2889835217 -0.1707074753
0.5745124151 0.3062472795 -0.0898651967
0.4143014204 0.2145505601 -0.2300000000
0.5517427605 0.3168815337 -0.0909392644
0.5286289628 0.1702696275 -0.1191084373
0.4993294526 0.1556085622 -0.2723816223
0.5058538926 0.2601894001 -0.3306579724
0.5710226516 0.1620377527 -0.2597058516
0.3574328403 0.3182567399 -0.0265964883
0.5452886727 0.1737118251 -0.3516945795
0.4662974214 0.3078714911 -0.1360095539
0.4459457820 0.3387857426 -0.0586677118
0.5400000000 0.2202765467 -0.3462258813
0.4849460030 0.1715197161 -0.0653094007
0.4224608784 0.2295508149 -0.2331758193
0.4258220896 0.1877055091 -0.0059470175
0.4931897283 0.2013122868 -0.2450000000
0.4096434832 0.2708008954 -0.1375316581
0.3761308764 0.2409039892 -0.0393249297
0.3839493329 0.1739883125 -0.3131555343
0.6485097721 0.1752691748 -0.0820276112
0.5839155160 0.2856394514 -0.1882993143
0.5316067783 0.1659545646 -0.0746655976
0.6357557842 0.2609271093 -0.1540331772
0.4852760390 0.1690248628 -0.3306252106
0.3340551002 0.2184795906 -0.3192061193
0.5859784487 0.2969682807 -0.0770975438
0.5529856695 0.1394343135 -0.2202796162
0.5950551920 0.1558979727 -0.0967078358
0.4189406203 0.2586652095 -0.2896557365
0.3865452815 0.2113444938 -0.0140110587
0.5156586305 0.1651727006 -0.0354317515
0.5135211078 0.2857064586 -0.0526805071
0.6219617049 0.1514052978 -0.1824146128
0.4317487466 0.2520343282 -0.1406919401
0.5476582897 0.1777019032 -0.1613721413
0.5216626435 0.2111344084 -0.2105622608
0.6151605724 0.1555541418 -0.1762872127
0.6031028964 0.2428077107 -0.2626857527
0.3343793439 0.2230412711 -0.2946889801
0.4636540481 0.3055530582 -0.0679095317
0.4596581046 0.3195435718 -0.0321994863
0.6476661550 0.1664799303 -0.0963947658
0.5408372856 0.1361467037 -0.2150800538
0.4397304652 0.2366471145 -0.1201603487
0.6545089042 0.2027507789 -0.1090789068
0.5580000000 0.1430832376 -0.2453470517
0.4383176247 0.3104871374 -0.0690933742
0.4093657407 0.2022028569 -0.0354971142
0.4635386942 0.1832596434 -0.0946299888
0.4610228182 0.3304991943 -0.0340457895
0.4635416232 0.3077885786 -0.0729964852
0.4300000000 0.2216477021 -0.2489842155
0.4688522808 0.1636002468 -0.3115856287
0.3685612065 0.2531918638 -0.0437039464
0.6251112062 0.1981889471 -0.1996237826
0.4401018231 0.3428677124 -0.0594490884
0.4807630576 0.1587953067 -0.2366882328
0.5112412460 0.3146330215 -0.1316272834
0.5035912308 0.1881128181 -0.1785427834
0.6568661173 0.2072401372 -0.1013768213
0.3846072008 0.2182544976 -0.0508361786
0.6432995701 0.2262685068 -0.1854573779
0.3825757530 0.2531826119 -0.2832044210
0.6177363189 0.2325605314 -0.2492169380
0.4962003608 0.2505290828 -0.2050000000
0.5122426781 0.3135699075 -0.1261948362
0.4672446819 0.1794872738 -0.0663536000
0.6543193771 0.2075020254 -0.0358418554
0.5180138802 0.3143520023 -0.1633093894
0.4880406572 0.2667623493 -0.3580941267
0.6035871833 0.2135871833 -0.2593503595
0.6480690424 0.1839263995 -0.0800205395
0.4063914013 0.1902538861 -0.2455183444
0.5733652156 0.3062279296 -0.1075243170
0.4818011630 0.2670292349 -0.2762930524
0.5087560099 0.2537540347 -0.2579980248
0.5712054333 0.3141438532 -0.1254498933
0.3759297599 0.2415649540 -0.0161621999
0.4706774628 0.3176049261 -0.0083063431
0.5953607798 0.3011074352 -0.1409454718
0.5009271126 0.1566855538 -0.3152957347
0.4997497292 0.1502502708 -0.2466392325
0.4893512568 0.1904504199 -0.2400708308
0.5097482458 0.2999017390 -0.1758782796
0.5023830013 0.3120511908 -0.1645069113
0.5109242780 0.3198494658 -0.1433855041
0.5896150787 0.1964630092 -0.3142293870
0.6440058868 0.1676899581 -0.0750002019
0.3674814486 0.1845865141 -0.2495983483
0.4915764389 0.2861229586 -0.0012371955
0.4140000000 0.2074845398 -0.2450513135
0.3190000000 0.1918515439 -0.2921301419
0.3547222901 0.3206865316 -0.0222282492
0.4982895823 0.1695288037 -0.0314424999
0.5932448563 0.2745919064 -0.1985895260
0.5306772889 0.2447847383 -0.3287217870
0.4940000000 0.2158814964 -0.2558580044
0.3977136437 0.1719716450 -0.3289007395
0.3990864263 0.1904012554 -0.2587128602
0.4887128273 0.1707292039 -0.0413539807
0.5193616200 0.1475638816 -0.2746069972
0.3193342705 0.1848885765 -0.2874177102
0.4490120919 0.2015477331 -0.1991565901
0.6061269959 0.2690940429 -0.0313847316
0.5368052894 0.2660000000 -0.2304523756
0.3800556526 0.2375612446 -0.0263937915
0.6189966855 0.2316611424 -0.2050741321
0.6436655705 0.1876716123 -0.0775082215
0.5387367341 0.1668683671 -0.1080737654
0.4831878535 0.2629083101 -0.1952055591
0.4813811637 0.1623165046 -0.1984174770
0.6117779304 0.2829956155 -0.1490043845
0.4378197347 0.2510153939 -0.1340635273
0.4327574363 0.3373601991 -0.0642392745
0.3841490740 0.1725060178 -0.2836323778
0.5073336056 0.2882058545 -0.0136653171
0.4379502721 0.1722280029 -0.3155214162
0.6414763020 0.2365296173 -0.0363319532
0.4944927352 0.2907378003 -0.0138168878
0.5031053790 0.1645747315 -0.2174121841
0.6128051810 0.2250735747 -0.2421813908
0.6380938059 0.1625345869 -0.0990126148
0.4692993381 0.1802439075 -0.2595011032
0.5077825252 0.1715664324 -0.0861556102
0.6212771622 0.1715713359 -0.1470169258
0.4589915641 0.3117757374 -0.1180606566
0.4183064092 0.1969046995 -0.0396914577
0.6464075022 0.2352270178 -0.0399271193
0.4055810289 0.2705288079 -0.0900000000
0.4176605067 0.1760000000 -0.3255712603
0.5293880739 0.1406119261 -0.2116508550
0.5171002880 0.2611609475 -0.3180650876
0.6372247408 0.1961637072 -0.0148986027
0.5702579140 0.2406618651 -0.2862368101
0.4917002922 0.1550000000 -0.2494484735
0.6287270901 0.2712923965 -0.0971832210
0.4151765061 0.2107651846 -0.2551071210
0.5024168664 0.1590000000 -0.3268217399
0.5086454649 0.2449340800 -0.2447975688
0.4277378694 0.2503038363 -0.1097148970
0.4659721035 0.1810278209 -0.0749653184
0.3580411224 0.3072534399 -0.0249657183
0.6504980071 0.1861620166 -0.0239928267
0.6454154596 0.1873080887 -0.1120974333
0.5108542197 0.1448449839 -0.2293513811
0.4527852908 0.3272828026 -0.0413245410
0.5345480907 0.2801596001 -0.0403367032
0.5531179016 0.3019953086 -0.0761132102
0.6394378893 0.1963046886 -0.1419273916
0.5632465995 0.1677729210 -0.1109097366
0.5352134679 0.1714908340 -0.1393944475
0.4478487620 0.1710684383 -0.3056125753
0.6232176951 0.2525320517 -0.2001053339
0.6002954366 0.2696312823 -0.2044739314
0.5282038088 0.2769625747 -0.2697226942
0.3655757876 0.2015885256 -0.3478619862
0.5139504352 0.2485115221 -0.2406711351
0.4662429404 0.1984660398 -0.1148408060
0.4552110145 0.1745183276 -0.0515950865
0.3325288163 0.1915968004 -0.3125480271
0.4653429213 0.3136511959 -0.1117440207
0.5103319713 0.2511194637 -0.2529201390
0.5528211407 0.2817014856 -0.0533032085
0.4644372691 0.3489972054 -0.0155627309
0.5883419091 0.2777933258 -0.1971246393
0.4889432705 0.2694488061 -0.2944995307
0.6503173300 0.1999089378 -0.0705328903
0.6128267409 0.1584524864 -0.1210482598
0.3355014878 0.1842081936 -0.3125024796
0.4626595493 0.1670137116 -0.2989911872
0.4684214468 0.2591244553 -0.2971936204
0.6019129005 0.1458640308 -0.0135933383
0.4943609577 0.2851657323 -0.0435091871
0.4017365859 0.2108319808 -0.0448799863
0.6484575987 0.2241055157 -0.0177287994
0.6539421089 0.2226626927 -0.0211776361
0.5074236935 0.2615228407 -0.3252481627
0.4586087597 0.1907195861 -0.0875937192
0.4773220807 0.1972141479 -0.2050000000
0.4265377251 0.1795393180 -0.3584617385
0.4246541837 0.1943494065 -0.0260843224
0.6293204709 0.1924677243 -0.1499300680
0.5383453380 0.2514064496 -0.3164114071
0.5595281932 0.1452922898 -0.2128376162
0.3811252750 0.2349401073 -0.3567362639
0.4426231423 0.1736302122 -0.3421007072
0.6298320147 0.1806257859 -0.1681679853
0.6545695426 0.1986188229 -0.1200000000
0.3199115527 0.1960365121 -0.3015660486
0.3506068620 0.3201071189 -0.0059828450
0.6618253711 0.2472100393 -0.1277621323
0.4172552158 0.2327080194 -0.0775105139
0.5615130515 0.1491551483 -0.2182104843
0.3773820638 0.2520562536 -0.0193940316
0.4197741986 0.3120232690 -0.0745361628
0.6178448807 0.2298448807 -0.2347340442
0.5690864581 0.1802756946 -0.3255316876
0.3450720448 0.3327148410 -0.0453602241
0.4422824540 0.3046601689 -0.1405582630
0.6387328026 0.1723428870 -0.1059174641
0.3988764845 0.1978352545 -0.2361248772
0.6545983004 0.2452652508 -0.1205779044
0.3535181074 0.2748277269 -0.0589837785
0.6240000000 0.2456022616 -0.2196544701
0.4883770401 0.1690000000 -0.3446863340
0.6341182556 0.2790315577 -0.1276238550
0.6365393189 0.1542782163 -0.1178136490
0.5334287503 0.1697686181 -0.3552024686
0.5319884905 0.1639295161 -0.0802433611
0.4962971467 0.3166821097 -0.1456416050
0.5302914217 0.1578467570 -0.3407509618
0.6654070588 0.2169967232 -0.1750000000
0.5470033038 0.2230556946 -0.3320471476
0.6359103038 0.1604312166 -0.0642367388
0.5767426406 0.2106961470 -0.3139827325
0.5389342443 0.2248009986 -0.3500000000
0.5529744930 0.3093207696 -0.0829725050
0.5274217070 0.2656235110 -0.2456500808
0.5205240037 0.1710000000 -0.1247966102
0.3845671549 0.1700275631 -0.2651808326
0.4987165368 0.1666481392 -0.0236145796
0.6174697237 0.1822709728 -0.0057245525
0.6529362049 0.2224143797 -0.0393464079
0.4430256592 0.1730000000 -0.3361239396
0.3947306193 0.2469140312 -0.2502149219
0.4552466812 0.1842337868 -0.1912515086
0.4836492395 0.2904280110 -0.0569527336
0.4174304029 0.1785971009 -0.3055000621
0.5186641157 0.2433216463 -0.2307838775
0.5615883751 0.1958908925 -0.3342019884
0.6159072244 0.2307147768 -0.2600000000
0.6506720667 0.2104763683 -0.1055596639
0.5534290344 0.2712794834 -0.2160520888
0.6452123833 0.2232636319 -0.1678536428
0.4644518510 0.3011556235 -0.0584380168
0.5576016438 0.2077088067 -0.3332437045
0.5639861911 0.1690110021 -0.1166735899
0.3546213245 0.2948792385 -0.0082208576
0.4777121281 0.2764360740 -0.1866568184
0.5787075158 0.1761474625 -0.1550767766
0.5516095998 0.2780000000 -0.0391394066
0.4144915499 0.2317871667 -0.2490607934
0.4077842501 0.2049811977 -0.2600000000
0.6233331286 0.1552256722 -0.1154929914
0.6291025882 0.1524156049 -0.1205660024
0.5326174126 0.1690000000 -0.1092384098
0.4380280647 0.2416220527 -0.1494636369
0.5945675186 0.1659213869 -0.1309337032
0.6112375921 0.2210441046 -0.2319795274
0.5499590727 0.1388355793 -0.2753422467
0.5754386190 0.1689181587 -0.2440602205
0.5791919504 0.2519790825 -0.2640743828
0.5785401719 0.2975904653 -0.0784283055
0.5093341481 0.3124404075 -0.1650748017
0.4701912854 0.1927391928 -0.1133140217
0.5215835007 0.1581165669 -0.3503749279
0.4875171540 0.2867481642 -0.0398393080
0.4943346062 0.1738517272 -0.1062954762
0.5266259962 0.1439640011 -0.2615457332
0.4756560870 0.2897845467 -0.0458378977
0.3723757351 0.1797746771 -0.3503781634
0.6037905542 0.2950194194 -0.1550000000
0.5490773315 0.3073293268 -0.1761381012
0.4246648573 0.3567228401 -0.0121285998
0.5903758750 0.2616834764 -0.2504957857
0.5085225701 0.2016576736 -0.2234686664
0.5359721718 0.2811840098 -0.0345773010
0.4248606805 0.2310115958 -0.0815602303
0.5371399496 0.1531293837 -0.1942269488
0.3698315270 0.2705064015 -0.0312487719
0.4848013234 0.3034089792 -0.1689872404
0.3871747009 0.2258081175 -0.0365186783
0.4244317997 0.3108064542 -0.0941935458
0.6148159171 0.2608624365 -0.0553152624
0.3811603847 0.1724377054 -0.3032166691
0.6010651196 0.2707570533 -0.0392816632
0.5068157642 0.2425438428 -0.2548769772
0.5960124360 0.1500000000 -0.1829116620
0.6402530065 0.2166936708 -0.1819621382
0.4455429181 0.2944680500 -0.1442695442
0.5637746905 0.2805378901 -0.0545282596
0.6424038741 0.1611719865 -0.0771834409
0.4964320367 0.1493391531 -0.2307491601
0.4646357707 0.2236210543 -0.1275793453
0.5016922787 0.2134537713 -0.1557562855
0.4597435341 0.2787377046 -0.1635095817
0.4777536660 0.2928338702 -0.0342443067
0.6158624621 0.2294374369 -0.2534565865
0.5386165777 0.1668082888 -0.1005906679
0.6422570177 0.1621701149 -0.1034407663
0.3466470691 0.2146727711 -0.2600000000
0.4092482272 0.2041544823 -0.0302345387
0.6017247460 0.2697174202 -0.0271888541
0.5900004523 0.1631050980 -0.1074507800
0.6377321062 0.1818545061 -0.1308869469
0.3236732078 0.2152378057 -0.2864114948
0.4699960553 0.2339747878 -0.1892231227
0.6537285753 0.1819084106 -0.1750000000
0.5428851277 0.1640549625 -0.1798900751
0.5180931775 0.3187749020 -0.1374888487
0.4290000000 0.2457653279 -0.1405775765
0.5381426295 0.1384282882 -0.2374493444
0.6298681856 0.1556705667 -0.1335254495
0.6325598874 0.1566655040 -0.0250027710
0.6302736461 0.1769204641 -0.1313786708
0.4715637344 0.1768002919 -0.0216735936
0.6262054498 0.1507447739 -0.0312166331
0.6261950860 0.1830317686 -0.0128015079
0.3193191750 0.1841754107 -0.3049273714
0.5056513537 0.2765814192 -0.2808958138
0.3543174118 0.3291425474 -0.0265870589
0.6426288379 0.2194477981 -0.1517696380
0.6445859313 0.2521613341 -0.1589752824
0.6015773306 0.1628729592 -0.1229504297
0.4888853875 0.2853461603 -0.0458640174
0.5807227484 0.2819220373 -0.2010779627
0.5863523898 0.1872952203 -0.2506127460
0.3586088059 0.3329821388 -0.0160295609
0.5484669964 0.3040000000 -0.1826073246
0.5494180698 0.2718361397 -0.2534828649
0.5897449048 0.2506665334 -0.2611510025
0.6169509428 0.2478715592 -0.1987879080
0.3817312562 0.2153659550 -0.3554452086
0.6287037684 0.1907081253 -0.1941828713
0.3642380691 0.2778616838 -0.0171033817
0.4641673898 0.2687715400 -0.1950000000
0.5085885778 0.1717835024 -0.1101186548
0.5333879052 0.1704967285 -0.0905768316
0.4762429679 0.1622763537 -0.2936329338
0.4240343422 0.1744896973 -0.3301272589
0.6341655502 0.2229107562 -0.1900000000
0.3822556920 0.2302712617 -0.0485994405
0.5582741812 0.1692116642 -0.1183800133
0.3972522324 0.1755060284 -0.2998942309
0.5748958181 0.1745022097 -0.1439967129
0.5285609693 0.1444094402 -0.3029748121
0.4184567380 0.2219330727 -0.2300000000
0.6480772796 0.2225780313 -0.1606940820
0.4820216683 0.1658625897 -0.3246082484
0.4861843462 0.1848189737 -0.1190389623
0.3529818368 0.3054211388 -0.0394858681
0.6504341207 0.2173583987 -0.0357073491
0.5745171617 0.1484890789 -0.0244331553
0.4970723441 0.3147354111 -0.1554144169
0.5700998692 0.1447623792 -0.2020814836
0.4635803346 0.2570490483 -0.2990806905
0.4910956940 0.2880314088 -0.0532416780
0.6368140408 0.2074086056 -0.0068265793
0.5016593308 0.2087039938 -0.2369384425
0.6180000000 0.2614618956 -0.1850926276
0.3722549966 0.2437084532 -0.0062603523
0.4714843162 0.2035880421 -0.1768137766
0.5205874738 0.2107069329 -0.3600000000
0.6392936343 0.2591521054 -0.1070256882
0.4388814796 0.2713169005 -0.3406544006
0.3492770318 0.3090882255 -0.0415280478
0.5806745555 0.1576508891 -0.0885483870
0.5350364038 0.1431314498 -0.2798880330
0.6385637726 0.1923669826 -0.1550000000
0.4847022522 0.3143513575 -0.1201328672
0.4891068918 0.3179922221 -0.1500077779
0.4599392777 0.1794721859 -0.0453492817
0.4476434769 0.1756897102 -0.3588886452
0.5798410470 0.1785761254 -0.2851452555
0.6267037206 0.1542178823 -0.1266247528
0.4606297077 0.1677566399 -0.1962168007
0.3723595429 0.2442616383 -0.0530587117
0.5932649434 0.2583025817 -0.2554974215
0.5719108727 0.3148132430 -0.1326369257
0.5828447062 0.1830319330 -0.2946901334
0.4169407858 0.1730000000 -0.3159871212
0.6688170964 0.2341154198 -0.0825516126
0.5600880905 0.3170790042 -0.1509480553
0.5763735267 0.2316067370 -0.3050328938
0.3639467070 0.2869048710 -0.0083717843
0.3880156937 0.2298411472 -0.3599076552
0.4082021238 0.2676225644 -0.3263774356
0.5729710405 0.1652850676 -0.2695998519
0.6105893938 0.1521416535 -0.1796073082
0.3619226338 0.3297232140 -0.0242683780
0.5174595632 0.1509627730 -0.3009502579
0.6293287070 0.1718234933 -0.1511977565
0.4031136401 0.1775783957 -0.2974681694
0.3902577323 0.2312090665 -0.0504488447
0.5794783914 0.1769573909 -0.3017417362
0.6061824244 0.2148387918 -0.2380292926
0.4972368946 0.1760000000 -0.1156866162
0.5108971205 0.1516771874 -0.2845769944
0.3498313267 0.1966240356 -0.3297188779
0.5800000000 0.1768485922 -0.2174082418
0.4760315178 0.2954798237 -0.0629979798
0.3653163517 0.3368239440 -0.0240072995
0.6157297738 0.2476537508 -0.2303248987
0.4412001668 0.1838999166 -0.0214511982
0.4929466031 0.2114310918 -0.2598890180
0.5718405657 0.1634009428 -0.2192465500
0.3879986825 0.1917728714 -0.2384533788
0.5406335116 0.2792602108 -0.0389214567
0.5386149679 0.3189460289 -0.0889721406
0.3220000000 0.1871427224 -0.2716989872
0.4262109300 0.2360901881 -0.0850000000
0.5108933605 0.1643938127 -0.0608044832
0.3673756815 0.1703025369 -0.2895118945
0.5273746422 0.2617920473 -0.2300000000
0.4769530446 0.1694664644 -0.2567449257
0.4710466902 0.1634364081 -0.2885857079
0.5779212394 0.2803334805 -0.0562426263
0.6147148976 0.2276198634 -0.2472230015
0.4598245100 0.3021438272 -0.1292511909
0.6060990273 0.2865465007 -0.1134434393
0.3472519462 0.2990258225 -0.0150497798
0.6030271248 0.2674808706 -0.0211248568
0.3711594609 0.2399604284 -0.0477048660
0.6350328466 0.1919450136 -0.1659671534
0.4986653056 0.2943645809 -0.0045307052
0.4132918291 0.1729122090 -0.3336064944
0.4732538829 0.1690000000 -0.1866037625
0.5293975146 0.2554984183 -0.2191538630
0.4015099162 0.1726506455 -0.3429857615
0.5055434253 0.2166648821 -0.2307609578
0.4380560635 0.2115171639 -0.1053076438
0.5624409856 0.2720256644 -0.2446111250
0.6183403506 0.2368612345 -0.2325959529
0.3855372885 0.2245885061 -0.3582538308
0.5914504231 0.2420146986 -0.2653059664
0.5834505699 0.1443374287 -0.0203908324
0.4542480191 0.1710000000 -0.3034916584
0.3184240140 0.2026777713 -0.2960727392
0.6518124092 0.1998118315 -0.1138675911
0.3715606439 0.2598168001 -0.0128032193
0.4798167319 0.1915192860 -0.1190913426
0.3646069065 0.2913724156 -0.0268088761
0.6490112441 0.2476234890 -0.1571881213
0.4330101714 0.2523372387 -0.1182548796
0.5231675516 0.1422059805 -0.2392169151
0.3635908219 0.2906254442 -0.0140132898
0.5688351867 0.2766737785 -0.0487156780
0.5522192991 0.1910469896 -0.3453654986
0.4242974725 0.2825530973 -0.3591510011
0.5793719121 0.3051937582 -0.1650334919
0.4685298702 0.2152225993 -0.1234979037
0.5902222996 0.3025531701 -0.1429011092
0.6432792485 0.2203252000 -0.1729575878
0.4762832530 0.1792521536 -0.1091943012
0.4556313579 0.1912833732 -0.1918989823
0.4443135492 0.3084266930 -0.1177774544
0.5525541546 0.3140778628 -0.1578442744
0.4621776496 0.2189813201 -0.1195053444
0.3336403544 0.2170901706 -0.2340213559
0.4968340874 0.1525435710 -0.2510372360
0.4997129964 0.2296283920 -0.2554783394
0.5133644031 0.2543462320 -0.3363695544
0.5344484528 0.2591700864 -0.3109536522
0.4309948649 0.2727734175 -0.3411229659
0.4794863202 0.1640534717 -0.3182752593
0.4905133332 0.3063688853 -0.1656777957
0.4328976059 0.2374084388 -0.1202640017
0.4941792861 0.1707148706 -0.0515364679
0.5970860249 0.3042539661 -0.1283138486
0.3338190166 0.1710933112 -0.2859123278
0.4987792565 0.1497066809 -0.2364988319
0.4017611455 0.3008863541 -0.0891601677
0.4496735880 0.1780591640 -0.0423834948
0.4065383029 0.2352144561 -0.2500000000
0.3732668368 0.2032352954 -0.3550000000
0.5892608184 0.2724779361 -0.0406106044
0.5580000000 0.1434818977 -0.2197623845
0.3660000000 0.2362014596 -0.3464216852
0.4586022432 0.3380745125 -0.0407702876
0.4138217223 0.2375920071 -0.0781807593
0.6341656738 0.1724247241 -0.1551032819
0.4568768089 0.1722563738 -0.3224945723
0.4646074622 0.2958417624 -0.0527554759
0.5729799625 0.1657496666 -0.2974496111
0.6168700842 0.1538021735 -0.0488552195
0.4327437872 0.3178663527 -0.0893898601
0.5801835299 0.2726429341 -0.2252169200
0.4525909882 0.2302943020 -0.1299956556
0.4937623791 0.1689903460 -0.2246039651
0.5170369002 0.1517112382 -0.3201294820
0.5392758389 0.2794412190 -0.0446250131
0.4795077076 0.1613581937 -0.2422379643
0.6451629818 0.1802093775 -0.0868148652
0.5968151424 0.2188795501 -0.2736414294
0.5187593983 0.2475073848 -0.3431778106
0.5457767188 0.2690000000 -0.2299544575
0.6245827060 0.2441214258 -0.1894408777
0.5895608441 0.1938071606 -0.2971586812
0.4441132144 0.2479095580 -0.1303833422
0.4488249997 0.1773016076 -0.1945257890
0.5427022421 0.1797384134 -0.3534987544
0.6506426541 0.2567299823 -0.1300127421
0.5134820360 0.2409951660 -0.2328207063
0.5885303742 0.1882955613 -0.2675012723
0.5677618739 0.3108915799 -0.0870511851
0.5654079225 0.1586356611 -0.0456072315
0.4248148739 0.1930582872 -0.0345509317
0.6017738697 0.2936623115 -0.1166623115
0.5854104687 0.2023470952 -0.3110371052
0.5611536068 0.2036400520 -0.3311422176
0.3899575076 0.2478227257 -0.3600000000
0.5956333070 0.2353599107 -0.2691298737
0.5830503759 0.2729496241 -0.2102316665
0.4182111113 0.2236707349 -0.2450000000
0.5991275950 0.2042126584 -0.2593148163
0.4379514623 0.1738380267 -0.2913644496
0.5699447886 0.2713818049 -0.2416582418
0.4114381781 0.1962208684 -0.2593085453
0.5312303638 0.2534370633 -0.3192102362
0.5970898800 0.2207388066 -0.2674437211
0.6167739008 0.2595108445 -0.2008516086
0.6020000000 0.2091598000 -0.2558197687
0.4906212302 0.2669337974 -0.3030728607
0.6183602915 0.2790687125 -0.0965728378
0.4719308528 0.2560181141 -0.3129688633
0.6431237366 0.2300187731 -0.1509614549
0.5509341160 0.1791469650 -0.1508253213
0.6427944412 0.1639126945 -0.0959991271
0.5425710823 0.1380000000 -0.2240767351
0.4877580933 0.2986015009 -0.0102333293
0.6237280303 0.1610274680 -0.0311448783
0.5860265698 0.3065537052 -0.1408034971
0.6292419762 0.1815693195 -0.1409069763
0.4292017292 0.2407718829 -0.1086171504
0.4461382574 0.1958536926 -0.1997628627
0.4315853283 0.1753837429 -0.3389729049
0.3478585277 0.2816402105 -0.0460610422
0.4816271608 0.2981168693 -0.0633982607
0.5628128279 0.3079048163 -0.1700372109
0.5045962132 0.1629651111 -0.1886988964
0.3448491264 0.2156268743 -0.3350000000
0.3983704033 0.2360178373 -0.2350891867
0.4299103543 0.2416968505 -0.2481392173
0.4557436290 0.2119959761 -0.1779959761
0.6446587970 0.2121671617 -0.1742449376
0.5563740383 0.1419160256 -0.2513872323
0.5820047763 0.2875435152 -0.0662986587
0.5552827893 0.1402778409 -0.2311218049
0.5808051983 0.1626414334 -0.1064361992
0.3717761718 0.1866495443 -0.3544404296
0.4241676662 0.1889344117 -0.0587962295
0.3520689926 0.2748309090 -0.0519510444
0.6616982289 0.1926188397 -0.0847209486
0.4050154690 0.1756184428 -0.3490922412
0.5806392598 0.1770654330 -0.2369390569
0.6460805154 0.1664290694 -0.0859739958
0.4693455457 0.1782768944 -0.0871225048
0.5479940959 0.1714775403 -0.1325827779
0.3572513786 0.3051613703 -0.0141572357
0.6534064500 0.1720469474 -0.1750000000
0.3768379854 0.2459036155 -0.2653833076
0.4675749760 0.3392503680 -0.0239840480
0.4504873824 0.2976357596 -0.1261084783
0.5579201951 0.1773393205 -0.1508665285
0.4537587267 0.1901647357 -0.0742013134
0.5113001124 0.1710000000 -0.0917426561
0.5023515513 0.1609655899 -0.3381725293
0.4608961310 0.1847192934 -0.0834809141
0.5237961655 0.2441049657 -0.2170768014
0.6444921668 0.2127446886 -0.1800000000
0.5305760625 0.2816557774 -0.0552225391
0.5581202773 0.1706781016 -0.1291168559
0.4547802532 0.2577859048 -0.3170824995
0.5515219485 0.1640000000 -0.0860805409
0.4477649696 0.1806175152 -0.0204471101
0.3699838820 0.1704490683 -0.3100556426
0.3470000000 0.1785382370 -0.3216769866
0.4727955203 0.1955973087 -0.2493766710
0.5781946293 0.2212442830 -0.2885190432
0.3873781714 0.1724533144 -0.2946583826
0.5121661964 0.1458338036 -0.2484907496
0.5599481795 0.1478274070 -0.2556038625
0.4126385433 0.1795142262 -0.2974368034
0.6164190661 0.2376348899 -0.2454049904
0.6114969948 0.2852094718 -0.1164875632
0.4811388386 0.2940648960 -0.0274413228
0.3760121016 0.1705620347 -0.2872342680
0.5897300068 0.1938238553 -0.3199653109
0.4585571509 0.1950875113 -0.1111732231
0.3977349098 0.2779751857 -0.1415546994
0.3667976791 0.2493149167 -0.2921411709
0.5773870823 0.1720322194 -0.2877040840
0.6461658683 0.1797096882 -0.0288736761
0.4505136527 0.1733447581 -0.0588355248
0.5539962951 0.3182503294 -0.1029222925
0.4536818849 0.3394870968 -0.0055301918
0.5870929497 0.2856405408 -0.1794159090
0.5734352545 0.1775374653 -0.3341206684
0.4370912021 0.1766362660 -0.2851761137
0.3870644824 0.2196301036 -0.0402799169
0.6328004039 0.2300703458 -0.1950948087
0.6009253907 0.2072089845 -0.2159491506
0.6390940344 0.1573577672 -0.0811231499
0.5171764969 0.1553074737 -0.1942317688
0.5865414113 0.2043447406 -0.3044307596
0.3495149674 0.3383717381 -0.0540903490
0.5944565231 0.3077637074 -0.1324016179
0.4097099242 0.2354727084 -0.0749185367
0.4409051239 0.2302145981 -0.1136031549
0.4597429162 0.2598365907 -0.3309658449
0.3615014816 0.3332386307 -0.0387180788
0.6198865148 0.2495981321 -0.1892907583
0.4833133264 0.2590000000 -0.3281240871
0.5430230490 0.2804340038 -0.0323304653
0.5820701087 0.2940384963 -0.0734135881
0.6530880619 0.2178332295 -0.1779152759
0.4298782776 0.3075758442 -0.0632544247
0.5126253594 0.1933155249 -0.2100676812
0.5134097949 0.1480000000 -0.2105483076
0.4463689267 0.2132269823 -0.1753392923
0.5780211744 0.1727019574 -0.2665717639
0.4447293285 0.3246371156 -0.0648451066
0.5503198832 0.1612934867 -0.0700526900
0.6241393207 0.1794768565 -0.1950000000
0.4548749936 0.2355097082 -0.1245052348
0.4881666387 0.1655625714 -0.3269897479
0.4310696354 0.2804071974 -0.3505798494
0.5021900184 0.3157707054 -0.1589509316
0.4200164310 0.1979046158 -0.0503974448
0.6138504577 0.1622351147 -0.0584032082
0.6441579231 0.1917928979 -0.1301226503
0.3931759180 0.2473869675 -0.2326219769
0.4996759307 0.2710911474 -0.3015758924
0.6418542264 0.1801945413 -0.1590508629
0.3443659480 0.2060406529 -0.3322846183
0.4015778639 0.2018537802 -0.0234902616
0.4990251329 0.2179288053 -0.2437311950
0.3944279610 0.2073051898 -0.0115833949
0.6210008568 0.1690025703 -0.0391358493
0.5936435681 0.2725135021 -0.2042035033
0.6249252673 0.1514242820 -0.0565402261
0.3468589458 0.3326726137 -0.0542947288
0.5502200234 0.1697332314 -0.1172468091
0.5843333836 0.2000462055 -0.3175223262
0.4517647159 0.2088074217 -0.1977576624
0.5845999250 0.1654589688 -0.1657842552
0.5576085445 0.1640000000 -0.0931076286
0.4182631873 0.1784647721 -0.2911619304
0.5724742444 0.2347534881 -0.2896204459
0.5800000000 0.1787645173 -0.2486165353
0.6459654106 0.2377370059 -0.1784162149
0.6083732333 0.2818999110 -0.1111671227
0.4543357295 0.1793293071 -0.0391717127
0.6419725586 0.2008575848 -0.0800000000
0.5421206305 0.1673989917 -0.1138260491
0.3559929692 0.1844741329 -0.2360529520
0.4062461472 0.1715063916 -0.2839101985
0.4097993774 0.1719498349 -0.2646253938
0.3872400447 0.2364992846 -0.3600000000
0.6037776620 0.2970685436 -0.1379669960
0.5912315257 0.2724397645 -0.0279811674
0.6150724781 0.2762569612 -0.0813747028
0.5511823845 0.1364978928 -0.2536373075
0.5800000000 0.1766657170 -0.2088423282
0.4275473017 0.1756506026 -0.3031567324
0.4707821938 0.1880426485 -0.2450324287
0.5291112343 0.2373734835 -0.3485453948
0.4325432808 0.1755401622 -0.3186627047
0.5166674076 0.2881687021 -0.0601791398
0.6572844408 0.2140370390 -0.1766810468
0.6245187939 0.1660447196 -0.1683257170
0.5347597090 0.1596918034 -0.0578600881
0.4793644840 0.1631192367 -0.2559711073
0.5951209462 0.2703414282 -0.0461650304
0.5296186325 0.1631535907 -0.0641535907
0.4206957136 0.1918548477 -0.0096371193
0.6380835261 0.2437074160 -0.0407419453
0.6172337774 0.1653144956 -0.0469320700
0.6506767436 0.2300767456 -0.0569710115
0.5827777007 0.1826295012 -0.3122768297
0.3501834989 0.3356808276 -0.0412005911
0.3872455070 0.2544633844 -0.2632338739
0.4145419871 0.2005639894 -0.2450000000
0.5878340072 0.2758546612 -0.0574912862
0.5579547851 0.1755644715 -0.1412398539
0.5710000000 0.1620309879 -0.3078128259
0.3690255390 0.2445458118 -0.2775458118
0.5333412288 0.1416234887 -0.3084993690
0.6415262403 0.2547658708 -0.1548375233
0.4989364454 0.2353926414 -0.2567725911
0.6081034051 0.1473577752 -0.1939296253
0.3809115552 0.2509179663 -0.3083217238
0.3955364743 0.2495948427 -0.0716504532
0.3991057191 0.1728439000 -0.3174119663
0.4489914252 0.3387522806 -0.0509167139
0.5226921898 0.1646569858 -0.0351205875
0.5920941817 0.1936412725 -0.2121052337
0.3808844139 0.2406564879 -0.0321265784
0.5622535781 0.2253789535 -0.3200000000
0.4976114818 0.1743597117 -0.0750205761
0.5457954070 0.3055440552 -0.1888601381
0.5474671890 0.2835818929 -0.0579741327
0.6021772605 0.1685209495 -0.1431538043
0.3260681091 0.2071507056 -0.3091876988
0.4050324412 0.2743198453 -0.3580688247
0.5468076714 0.1669746729 -0.1740315979
0.3671085497 0.1829032248 -0.2549411274
0.6231759005 0.1625550013 -0.1836265009
0.6239439012 0.1576915160 -0.1863065521
0.6150294451 0.2439736444 -0.2405357644
0.6380276111 0.2610067586 -0.1017403309
0.6302187932 0.1513092286 -0.0213020114
0.6289381364 0.2302858850 -0.1874226705
0.5236373029 0.1437485526 -0.2521829490
0.3385346146 0.2250055552 -0.2892640410
0.3565153042 0.1866501522 -0.2572497464
0.5852705877 0.1842705877 -0.2843723571
0.5368383359 0.2660000000 -0.2367094044
0.5864492965 0.1873105951 -0.2250000000
0.5480977081 0.1625131489 -0.1796488532
0.6427663746 0.1618475506 -0.0831975246
0.5600675416 0.1579408905 -0.0479326019
0.6533204301 0.2387913897 -0.1153683911
0.6089875702 0.1623098851 -0.1256761289
0.3887041628 0.2544296363 -0.2852287720
0.5215649351 0.1507810464 -0.3130473840
0.4107040730 0.3391236052 -0.0470487166
0.4175755947 0.3060088667 -0.0943873733
0.4664347193 0.2147522671 -0.1867933991
0.6216354647 0.2532964631 -0.2104349574
0.5520708095 0.1574616894 -0.0503491690
0.3383895351 0.1964623007 -0.3212537100
0.4947533618 0.1662466382 -0.3480880449
0.5694006052 0.1382913331 -0.2000000000
0.5317466170 0.1761835158 -0.1411140123
0.5457938387 0.2329273529 -0.3302307043
0.5979707047 0.2907466258 -0.1531039552
0.3828227221 0.2557986648 -0.2751202864
0.6241261786 0.2706283496 -0.0709725917
0.4373012184 0.2132987737 -0.0891871025
0.5861179627 0.2615425188 -0.2562629869
0.4269857871 0.2328172807 -0.2423914010
0.3931776476 0.2324424706 -0.0561282039
0.4945063527 0.1620473528 -0.3225537055
0.5220778190 0.2525512834 -0.3277411363
0.5530057489 0.1373381241 -0.2074609810
0.3791053749 0.2401422757 -0.2679169074
0.6450926986 0.2133854379 -0.1093378294
0.5149047391 0.1442745894 -0.2254524880
0.6432819973 0.2669000756 -0.1198581084
0.6518775899 0.2480879220 -0.1500532700
0.5510224659 0.1357203363 -0.2139022418
0.3957258339 0.2341752923 -0.0612322335
0.5311606592 0.1611974105 -0.0379935262
0.6397341110 0.1630794522 -0.0682936089
0.6453500674 0.1831788901 -0.1008601715
0.6217307021 0.1637268042 -0.1419531774
0.4978508033 0.1557618446 -0.3042636802
0.4767921822 0.2583408600 -0.3076385837
0.3826939634 0.2501228318 -0.3346929206
0.4342350898 0.1910898333 -0.0482314022
0.5650000000 0.1558950442 -0.2286805078
0.4145614502 0.3063856955 -0.0898122892
0.5915454068 0.1905756781 -0.2309856538
0.5535123591 0.1741695874 -0.1368671282
0.4213887201 0.2603797085 -0.1143055247
0.4328424650 0.2994214757 -0.1393800842
0.5580000000 0.1430547953 -0.2389402898
0.5757936584 0.1693915446 -0.2753190513
0.5975928031 0.2544276484 -0.2567554985
0.3783799496 0.2230543627 -0.0513895493
0.3598822067 0.2808200313 -0.0628174114
0.3167420457 0.2116690410 -0.2904402131
0.5866936764 0.1856936764 -0.2755785978
0.4433526790 0.1780941872 -0.0574678767
0.6066061522 0.1554170596 -0.0994563030
0.5770486653 0.2320122909 -0.2850000000
0.5311608227 0.1623772780 -0.3471902730
0.5052052822 0.1591868185 -0.3330466840
0.5120860691 0.1876183736 -0.1702599698
0.6375596550 0.1596152237 -0.0922139714
0.6284329185 0.1581995015 -0.0375802152
0.5040460825 0.2917452202 -0.0042353137
0.6184566189 0.2307610315 -0.2209948343
0.6553273170 0.2482296807 -0.1750000000
0.3970358115 0.2116806951 -0.0198560566
0.5197445117 0.1468717308 -0.2024184911
0.5207079479 0.2842982345 -0.0264162106
0.4057353396 0.1803382683 -0.2613308659
0.4895236439 0.2648853498 -0.3173987888
0.5417450743 0.1584844707 -0.0556511276
0.4967404661 0.1654012143 -0.0174622656
0.4535257108 0.2997395210 -0.1308684004
0.3716981306 0.2429421710 -0.2599036183
0.3777714129 0.1756383272 -0.3471291476
0.4832167074 0.1691256924 -0.0493715380
0.6427910906 0.1920385311 -0.0840668208
0.6173897277 0.2310575661 -0.2434578108
0.3972393051 0.2247392214 -0.0619090392
0.3934063658 0.1945188718 -0.2367854039
0.4180953036 0.3026989611 -0.1036308705
0.6411111320 0.2645257226 -0.1752161648
0.5293917353 0.2809296428 -0.0288654124
0.3379840418 0.1911095056 -0.3160452733
0.4315188464 0.2143443648 -0.0819555533
0.6313039804 0.2534705565 -0.1792073176
0.6014062180 0.2776018726 -0.1805135658
0.3697722797 0.1762083608 -0.2750000000
0.6291213396 0.1613385051 -0.0183787830
0.6027679614 0.2215573826 -0.2631389309
0.5653240744 0.1707624536 -0.1332184020
0.6374571942 0.1769584734 -0.0406902861
0.5797231374 0.2059257291 -0.3147678543
0.4947618679 0.2304240889 -0.2592258407
0.4726486666 0.1703957360 -0.3226291826
0.4987015024 0.2892024337 -0.0561120835
0.4420017660 0.2797657325 -0.1588469112
0.6249377985 0.1554356842 -0.0511073008
0.5872188110 0.2794100126 -0.1872852939
0.4994123298 0.1646662828 -0.3433328535
0.3240329710 0.1957079570 -0.3057969853
0.5868363074 0.2727539800 -0.0204261136
0.3615394963 0.1996251405 -0.3443502080
0.6534453764 0.1957127413 -0.0759773122
0.5112964044 0.2875836775 -0.0043701590
0.5891547221 0.1874149263 -0.2356543677
0.5801025067 0.2704264298 -0.2309544904
0.3985627828 0.1727333502 -0.2637618927
0.3489973099 0.1718418657 -0.3139699024
0.6189648517 0.2316080861 -0.2132495138
0.4310578626 0.1768880643 -0.3444403217
0.4051847448 0.1860774903 -0.2573338086
0.4055408267 0.2023082100 -0.0394660771
0.6031970139 0.2500609853 -0.2570825085
0.3437109008 0.3222864168 -0.0539387900
0.5213813739 0.2961011209 -0.1929604251
0.6268271203 0.1603579448 -0.0473517182
0.4829623375 0.1995212152 -0.2598560690
0.6576316150 0.2360008552 -0.1301600992
0.4843702280 0.1620000000 -0.3066465933
0.4698345791 0.2032315713 -0.1187536999
0.3762374087 0.2531571408 -0.0275653166
0.4740650106 0.2980233465 -0.0316476824
0.3528973981 0.1933768555 -0.3420978183
0.5291083486 0.1835788397 -0.1659377227
0.5886588629 0.2636843882 -0.2388217411
0.5911738050 0.1701865191 -0.1536668113
0.4338895321 0.3114504590 -0.1091618235
0.5109222233 0.1548589862 -0.2897265120
0.3699178254 0.2074827982 -0.3509672050
0.5328595432 0.1707343510 -0.1335012307
0.4287588125 0.2619926287 -0.2755783976
0.4001247903 0.2635751288 -0.3600000000
0.4676957299 0.1758629924 -0.0341014010
0.3796203318 0.2271176657 -0.0561671415
0.5758331778 0.2942763279 -0.0749831552
0.5348923953 0.1427309014 -0.2965225485
0.5409880013 0.2315692692 -0.3378134858
0.4393630667 0.1751157650 -0.3470525501
0.5790152786 0.2754876342 -0.2058539429
0.4342302087 0.3052450216 -0.1318026013
0.4277501629 0.2544279213 -0.1156538414
0.4224465443 0.3150000000 -0.0898353215
0.6377093664 0.1555281655 -0.1096763404
0.3383565636 0.2030992574 -0.3206471124
0.4648426454 0.1763611070 -0.0601836804
0.5943214574 0.1975049744 -0.2444957576
0.4046459395 0.2884078769 -0.1476699487
0.6714060758 0.2226242186 -0.1250000000
0.5675604057 0.1700275459 -0.1277065944
0.4079946717 0.2791114433 -0.3565883787
0.4828998987 0.1760829919 -0.0816381511
0.5150653521 0.3180000000 -0.1576065157
0.5691001543 0.1661525268 -0.1156317028
0.4696153435 0.3188465459 -0.0275555423
0.5115378328 0.2773172291 -0.2806654350
0.6493975236 0.2100481427 -0.1322565411
0.6307265938 0.2449600276 -0.0291857791
0.5188433672 0.2936122411 -0.1997140974
0.3220000000 0.1836349118 -0.2764432791
0.4426211227 0.2850026739 -0.1600000000
0.6001630728 0.1622591778 -0.1650141512
0.3864145049 0.2249470772 -0.0234339113
0.6462460925 0.2131491369 -0.0383675483
0.4245080742 0.1934842353 -0.0515206498
0.6397981191 0.2312082979 -0.1860204275
0.4462508634 0.2282465269 -0.1150000000
0.4435575065 0.1743414245 -0.3243215231
0.5975575594 0.2746441972 -0.0539329451
0.4339166961 0.3622689332 -0.0566862943
0.4783111628 0.1668398520 -0.2494813953
0.4690539010 0.1658828640 -0.3018293307
0.4518057793 0.1696717493 -0.3098756018
0.4162308194 0.2169157853 -0.0725415977
0.6278214840 0.1613868302 -0.1455620177
0.4454214780 0.3453599047 -0.0567892610
0.5595523869 0.1679978344 -0.1061244468
0.4365294758 0.1962049588 -0.0701140584
0.4060467185 0.1724716679 -0.3249569512
0.3307265805 0.1754430331 -0.2895358609
0.3529242426 0.2673220047 -0.0464237574
0.4554044149 0.1762196188 -0.3450000000
0.3601149637 0.2949225526 -0.0165356752
0.4873811731 0.2056483865 -0.1701016083
0.6567372315 0.2200797550 -0.0258758951
0.5411951588 0.1380000000 -0.2549720815
0.4251680503 0.2213882918 -0.2539613803
0.6272781515 0.1662653681 -0.0290301560
0.5852042570 0.2173018293 -0.3066162063
0.6471591879 0.2220432176 -0.0398010151
0.6405390995 0.2000966502 -0.0939950487
0.4766278859 0.1720793680 -0.0238591965
0.5911809664 0.1583911293 -0.1708698153
0.5953633922 0.3029764891 -0.1222381226
0.5737853234 0.1590465977 -0.0894057707
0.5160568305 0.1925284977 -0.1543490532
0.5364514436 0.1451866903 -0.2004057960
0.6216993067 0.2450556370 -0.2252905556
0.5012731711 0.1558374147 -0.2819610187
0.4523535489 0.1957586984 -0.1945078819
0.4911242960 0.2512109849 -0.2023997712
0.3267912834 0.1914381883 -0.3090784665
0.5529794558 0.1631292971 -0.1758707029
0.6512277643 0.1880900141 -0.1115835358
0.5907754578 0.1672241564 -0.1618183572
0.6003429713 0.1600475450 -0.1171548555
0.5476530062 0.2774038764 -0.0332252280
0.5747726836 0.1680302448 -0.2332372228
0.5095087060 0.1631442563 -0.2120760783
0.4526650707 0.3186727473 -0.0367346945
0.5638353519 0.1552443769 -0.0592861594
0.4458226886 0.1827005320 -0.0451189073
0.6528533702 0.2283373760 -0.0257207925
0.3567245737 0.3122920498 -0.0277146867
0.3834023308 0.2301001162 -0.0284365673
0.5239555699 0.2361663550 -0.2167407168
0.5660642527 0.2874518571 -0.0642694441
0.3478021484 0.2100520713 -0.3362013673
0.5153671315 0.2525352701 -0.2458406931
0.5896382427 0.2715656099 -0.2085859752
0.6466969452 0.2143322227 -0.1543626556
0.5278749408 0.1877910087 -0.3595139218
0.6558159105 0.2020355613 -0.0361840895
0.6307577855 0.1812177292 -0.1506930182
0.3718215978 0.1760185802 -0.2691594407
0.4721107462 0.1841260931 -0.2490387478
0.6064186791 0.1547903763 -0.1760154184
0.4126961444 0.1723770238 -0.2746374973
0.6111558769 0.2543760039 -0.1923432223
0.6234266642 0.2394786721 -0.2219725741
0.6044322609 0.1597897529 -0.1720531350
0.4062817524 0.2598768650 -0.3306748123
0.3640687363 0.3449162625 -0.0092034770
0.4030776128 0.2245774596 -0.2300000000
0.4988892046 0.1518670160 -0.2639519385
0.5747652813 0.1711999229 -0.1623834148
0.3903395950 0.2223378091 -0.3596697975
0.5831574128 0.1728562708 -0.1499621042
0.4359256601 0.1860326479 -0.0544680394
0.4490833949 0.2112005103 -0.1101389916
0.3187258362 0.1999471423 -0.2884118778
0.4858476499 0.2864558277 -0.0507664629
0.6079674679 0.2672617236 -0.1900000000
0.5894177265 0.2690053194 -0.0573561033
0.5608107957 0.1486025684 -0.2360411362
0.5814585603 0.3104221090 -0.1359993609
0.3206754140 0.1799884516 -0.3007654103
0.3992832779 0.1753958377 -0.2926784722
0.4160172832 0.2162875569 -0.2591522640
0.6554253533 0.2219662194 -0.0705316916
0.5230733406 0.2252818002 -0.2132077998
0.5090000000 0.2324672142 -0.2306204411
0.5382800976 0.1699599861 -0.1329055945
0.4259156999 0.1736341095 -0.3365114536
0.6227396449 0.1505986350 -0.0361617196
0.3622200363 0.1894419585 -0.2476170259
0.6487979237 0.1703347448 -0.0920367667
0.5109859819 0.1464234039 -0.2359843569
0.3984284586 0.2746649407 -0.3570844121
0.6485638118 0.2228306041 -0.1502127059
0.4729865054 0.1740753341 -0.2565636009
0.6373710540 0.1550051260 -0.0961645719
0.5590267749 0.1898725652 -0.3286192061
0.3972115107 0.2585960496 -0.3600000000
0.3724889259 0.2409643094 -0.2539383705
0.3187608589 0.2034910125 -0.2807824197
0.4406016355 0.2679854235 -0.1710592555
0.5183373911 0.3149891342 -0.1302285492
0.5644124503 0.1565266596 -0.0711412093
0.6556374663 0.2082127004 -0.0239555437
0.4761699355 0.1719433548 -0.3399080708
0.6298045956 0.1559706201 -0.0323256263
0.3524328735 0.2095738316 -0.3395882052
0.6357217805 0.2581502180 -0.0976430763
0.4076954913 0.2290966560 -0.0715800614
0.6217288570 0.1733538427 -0.0521021075
0.5905385205 0.1924930345 -0.3044087832
0.3710396247 0.2498726318 -0.2350000000
0.4849815649 0.1946870227 -0.2478424297
0.3616786870 0.2462046944 -0.2851403291
0.5857896181 0.2702732281 -0.2250000000
0.3792070834 0.1855567241 -0.2400000000
0.5048170933 0.1543211862 -0.2759113768
0.6430494598 0.2137188978 -0.1677290753
0.4612153958 0.2261427051 -0.1204835188
0.3898869412 0.2225946524 -0.0328468553
0.3895784012 0.2165075369 -0.3592892006
0.3788265354 0.2429661031 -0.0631816326
0.5773636082 0.2865138756 -0.1863412033
0.5034805947 0.2679154848 -0.3207290548
0.5782419113 0.1730698522 -0.2215108182
0.3754710955 0.1715576763 -0.3049734219
0.6282488088 0.1657446063 -0.1588840007
0.5774230710 0.1717051183 -0.2520519458
0.3960640635 0.1747131049 -0.3454056509
0.4257994657 0.3148108222 -0.0775640202
0.5570727130 0.1435556384 -0.3104678201
0.4606968832 0.1764596260 -0.3399916886
0.4688539585 0.1666922126 -0.1961345724
0.5646668235 0.3050102231 -0.0803438701
0.5201914937 0.1564138430 -0.3435346076
0.6132417800 0.2633923943 -0.1912553060
0.5679158866 0.2997850441 -0.1802264632
0.3628612562 0.2945077865 -0.0318656870
0.5779945839 0.3143210293 -0.1295156045
0.4818876988 0.2856062385 -0.1894384942
0.4015644988 0.1838455670 -0.2350000000
0.4766399244 0.3039432004 -0.0663192707
0.5449162554 0.1733011709 -0.1387634648
0.5192097445 0.2555747746 -0.2431503946
0.5537377932 0.1785071673 -0.1450347964
0.3831533869 0.2177386462 -0.0070640032
0.5560090982 0.2727573172 -0.2359352738
0.5354691345 0.3164147430 -0.0849612925
0.4970539907 0.2235823195 -0.2549100154
0.5372020246 0.2329403646 -0.3419985539
0.4930179816 0.3170808189 -0.1594142733
0.6548607696 0.1901057837 -0.0950594192
0.6138170766 0.2415772311 -0.2492120522
0.4750958779 0.3021210277 -0.1658123752
0.3558016109 0.1901973268 -0.2396877932
0.4869533597 0.1643223109 -0.2346925407
0.3833478320 0.2305826016 -0.0349500896
0.6035226390 0.1498920031 -0.0383843144
0.5354331082 0.2786018992 -0.0508598559
0.4870828333 0.1730000000 -0.0720054613
0.4782219524 0.2995049422 -0.0038643291
0.4569526496 0.3452227825 -0.0297241658
0.5337363968 0.1483116309 -0.3207790774
0.4339519144 0.2495596280 -0.2564955923
0.6379402690 0.2025253151 -0.0122317119
0.5785509606 0.2728222526 -0.0106362344
0.3954592174 0.2421269504 -0.2563308613
0.5649030251 0.3157782997 -0.1233466589
0.5121801189 0.2186483670 -0.2204250779
0.6440220816 0.2083384662 -0.1703854877
0.3536670921 0.2114917870 -0.2521571431
0.5025751276 0.1550000000 -0.2989242051
0.5327112715 0.1410000000 -0.2561023891
0.5452253866 0.2570000000 -0.3093053008
0.5281256487 0.1527305686 -0.3347603622
0.5588557943 0.1671147970 -0.0999509855
0.6172964168 0.1747080024 -0.0596294790
0.4306902827 0.1848613889 -0.0076920355
0.4485782814 0.1914336941 -0.0679563735
0.4124947956 0.2250463877 -0.0715803103
0.5601281577 0.1478020773 -0.2483695981
0.4253958628 0.3080693753 -0.1098843745
0.6419329119 0.1919683378 -0.1066536035
0.4759370815 0.1721459904 -0.3278649760
0.5820234295 0.1810234295 -0.2749751352
0.5198397796 0.2508236529 -0.2289704339
0.5190000000 0.2052633822 -0.2102392320
0.5598488164 0.1478488164 -0.3153123610
0.4779810381 0.1719291946 -0.0353540270
0.6270456533 0.1768087258 -0.1489379050
0.6561466385 0.2059040814 -0.0960302957
0.5754835777 0.2432691593 -0.2740088917
0.3580064483 0.2982360811 -0.0350000000
0.5760787916 0.2287744523 -0.2959834170
0.4757747072 0.1743100312 -0.2485294689
0.4786180793 0.2916046019 -0.0592445536
0.6081888108 0.2957981335 -0.1231379119
0.4650509629 0.1759300715 -0.3298834524
0.5923470288 0.2674954996 -0.2269291194
0.4970900146 0.2070600097 -0.2414048885
0.6020000000 0.2109500553 -0.2098611305
