0.4836322009 0.2709509335 -0.2944261277
0.5749428236 0.2430210264 -0.2682419939
0.6482194780 0.2091151551 -0.1118000376
0.5508729962 0.3145116827 -0.1594765023
0.4850950087 0.3074246131 -0.1313626004
0.4490598230 0.2427333104 -0.1614897807
0.4368610280 0.2360939876 -0.1224776497
0.4832690095 0.1541491218 -0.2211852393
0.4119171194 0.1797716226 -0.3544290296
0.5504697233 0.2150830135 -0.3393151251
0.3467923692 0.1835592493 -0.3342569124
0.5156136033 0.1721002091 -0.1038706162
0.3861125395 0.2158630445 -0.0052764756
0.6438902711 0.2420166100 -0.1130456347
0.4097328169 0.2495847197 -0.0898377972
0.4710065415 0.3162548648 -0.1115853402
0.3820102751 0.2474611961 -0.2385505217
0.5084172686 0.1627260742 -0.2036942459
0.6595094925 0.2106881210 -0.0927268224
0.5578582636 0.1459454731 -0.2926600682
0.4445629040 0.2034358672 -0.0960927210
0.3885620581 0.2136984655 -0.0559321744
0.3687019484 0.3420952977 -0.0602089514
0.4818182457 0.3123192373 -0.1203061158
0.4389477912 0.2318832399 -0.1503497676
0.6556872084 0.2391103481 -0.1732920857
0.4040987117 0.3215318372 -0.0614983822
0.5091546947 0.2988815295 -0.1756874877
0.6449849115 0.1821727295 -0.0971770465
0.4847221172 0.3077559369 -0.1645203899
0.6247213595 0.1946386705 -0.1993999634
0.3596200980 0.2595003989 -0.0432658277
0.5395585757 0.1847095823 -0.3549999893
0.3471488722 0.2249408707 -0.3260400134
0.4089673881 0.1772683689 -0.3207283363
0.4227327178 0.2819157982 -0.3478316058
0.6529943585 0.1973329728 -0.1079377014
0.5580000281 0.1448537907 -0.2783268586
0.3703777276 0.2451615783 -0.0527220970
0.3291095801 0.1759999990 -0.2937065257
0.6014233297 0.1599556232 -0.0076511957
0.4839630865 0.1663337228 -0.2217494764
0.4988773869 0.2940679628 -0.1780442731
0.6537355875 0.2257752660 -0.0209194858
0.5002276244 0.2154972350 -0.1605027670
0.6338440666 0.1504388070 -0.1237972200
0.6379354746 0.2436521460 -0.1701257426
0.6170832027 0.2664573651 -0.1627049185
0.3460264942 0.3245751059 -0.0501324421
0.5110273109 0.2526114230 -0.3468793907
0.3673536096 0.2526521894 -0.0481213611
0.6205625839 0.1665264554 -0.0480386304
0.3749336694 0.2400877750 -0.2453046044
0.4153988913 0.2370529027 -0.2349999994
0.4697307717 0.1803045909 -0.0994075588
0.5645049129 0.1577561587 -0.1794016319
0.6275703925 0.1514705830 -0.1822888124
0.6255420829 0.1534105181 -0.0949580549
0.6250822776 0.2712729160 -0.1759746250
0.6110000014 0.2368519111 -0.2593467194
0.6366740606 0.2054096249 -0.1459194808
0.5556023853 0.3013016381 -0.0768015326
0.4939999878 0.2189621343 -0.2577885507
0.4943952797 0.2072890192 -0.2519648357
0.3522026972 0.3163756082 -0.0334797598
0.6162295609 0.2509387378 -0.0058815141
0.3609744277 0.2273790462 -0.2464760070
0.4003426310 0.2759251358 -0.3470359089
0.5192429676 0.2364955065 -0.3600000143
0.4956866696 0.1592767742 -0.2274446252
0.4960275728 0.1729416952 -0.0737324031
0.4489633126 0.2878118351 -0.1625641042
0.4695481849 0.1892059520 -0.0871172912
0.5801633250 0.2114540362 -0.3070641305
0.6107692999 0.2221539739 -0.2591353100
0.4492110678 0.2014775728 -0.1053517760
0.6517294688 0.2509647787 -0.0734118449
0.4821854985 0.2990387332 -0.0090296433
0.4512270145 0.1957469691 -0.0945066406
0.6380990313 0.2655311153 -0.1721165818
0.6144317866 0.2623906631 -0.0238374543
0.6375736724 0.1833493337 -0.1825081593
0.5836459121 0.3070669415 -0.1726934736
0.5001077721 0.1499461197 -0.2433124485
0.4657776464 0.1770564987 -0.0360084623
0.4676465299 0.3289689715 -0.0177020425
0.3612111642 0.2215205067 -0.3486852841
0.3175667612 0.2028836720 -0.2885207171
0.4576935018 0.2152068547 -0.1982455778
0.5220803197 0.1439196947 -0.2220399220
0.6333284673 0.2168191759 -0.1991788765
0.3723938394 0.3606948250 -0.0173024052
0.4469949162 0.2151796152 -0.1112141067
0.5860879780 0.1846971029 -0.2234723270
0.4231264541 0.2375514955 -0.0853793401
0.4705327211 0.3066104461 -0.0240260894
0.4964136816 0.2914990900 -0.1956848990
0.5684449622 0.1580778816 -0.0502746042
0.6295069815 0.2527227905 -0.1543662864
0.5039451071 0.2768054661 -0.2794699019
0.4229144160 0.2457545981 -0.0899093621
0.6002767893 0.2178106817 -0.2685813282
0.5051674138 0.1630057091 -0.3445049234
0.5270774945 0.1401096395 -0.2137326510
0.5079391884 0.2416628717 -0.2433735340
0.4901365922 0.1917032554 -0.1327013740
0.5983314113 0.1495517479 -0.0350996066
0.4552851138 0.1750957162 -0.0460095501
0.4622751600 0.1759999990 -0.3303020105
0.6454284348 0.2714235480 -0.1229549682
0.5714107448 0.1626671741 -0.2889793702
0.3268230714 0.3053282357 -0.0520705724
0.5320922135 0.2673367854 -0.2887236691
0.5806421741 0.2103867804 -0.2866442170
0.5431271250 0.1736762428 -0.1401365433
0.6381832082 0.1937067894 -0.1621904411
0.4201752820 0.2713756082 -0.1000000015
0.5912934229 0.2222964217 -0.2746032195
0.4761920752 0.3138863677 -0.1555681389
0.3575247434 0.3228309830 -0.0284970773
0.4382993893 0.1726729104 -0.3155236455
0.3285698675 0.2066511208 -0.2344301409
0.5758556939 0.2257856605 -0.3139421945
0.4765446516 0.3045446506 -0.1613879531
0.6554264400 0.2204210058 -0.0302451812
0.5048767612 0.2373056466 -0.2541883793
0.5121610271 0.1468652530 -0.2260811945
0.4101100466 0.2228236340 -0.0797645197
0.5681811719 0.1600051793 -0.0788322368
0.4201892120 0.1754343611 -0.2754972709
0.4067491200 0.2692218118 -0.1394104861
0.4379097273 0.1954205760 -0.0731922263
0.6219423224 0.1744714673 -0.0419712482
0.4812515106 0.1588486747 -0.2463739092
0.4277843283 0.1779965332 -0.2987101244
0.5931395675 0.1963819617 -0.2066829555
0.3676580303 0.1771321893 -0.3417528952
0.5682981203 0.1752714191 -0.1392714207
0.5183999067 0.2941997775 -0.1999167620
0.6426476069 0.1660392754 -0.0915623965
0.4077177617 0.2897177610 -0.1095873596
0.5529973114 0.1690088793 -0.1753836157
0.5665616818 0.2915440993 -0.0671622183
0.4495983199 0.1813337485 -0.1938189389
0.5720547402 0.2908321099 -0.1937947132
0.4706416769 0.3093798379 -0.1470859316
0.4925502652 0.1919331572 -0.1796158660
0.5988760611 0.2927256864 -0.0809300952
0.5761672863 0.2420164792 -0.2690899803
0.6107425856 0.1492530213 -0.0338488163
0.5645377518 0.3164827610 -0.1499487095
0.6109211847 0.1673944977 -0.1501489085
0.4676136555 0.1763977239 -0.3480626419
0.6233658652 0.2381544697 -0.2108579683
0.5824025728 0.1681174636 -0.1216011097
0.6270568897 0.1955001148 -0.1940716753
0.6356760236 0.2539150606 -0.1400000006
0.3962342936 0.2574062362 -0.3310785055
0.3380252350 0.2261078828 -0.2350298693
0.5866416841 0.3063978250 -0.1120162776
0.4163249209 0.2712714774 -0.1390060120
0.4748201296 0.2980230141 -0.0307716332
0.6458003177 0.2589842966 -0.1748395995
0.5010150415 0.1676848057 -0.0166750569
0.6352241548 0.2189731137 -0.1802734766
0.3695347877 0.2427749838 -0.3360411337
0.5034593439 0.3127264796 -0.1641625605
0.3617800225 0.2371645154 -0.3274871982
0.5576669137 0.1963089825 -0.3349147001
0.5892166095 0.1911721304 -0.3092632125
0.4717833126 0.3165188125 -0.1105950363
0.5547252889 0.2525276613 -0.2989764731
0.4717710812 0.2007924584 -0.1800213673
0.5059198749 0.1737639018 -0.2144676194
0.3621810839 0.2978261426 -0.0234872446
0.6127465283 0.1670105356 -0.0110970914
0.4311946293 0.2345413196 -0.1131619099
0.4894249073 0.2853704881 -0.0022611923
0.5207044908 0.1562207499 -0.3390410217
0.4471856366 0.1978484636 -0.1979397530
0.5596091900 0.2709999979 -0.2397421030
0.4303287422 0.3341127409 -0.0485650980
0.6097055888 0.1490158215 -0.0676863171
0.5549168727 0.1515842595 -0.3200907217
0.5726806111 0.1673920600 -0.2684030960
0.3170588828 0.2132336647 -0.2929591900
0.3863713593 0.3548565347 -0.0611536028
0.6140493711 0.2904945259 -0.1322804945
0.5210981601 0.3170981431 -0.1267199410
0.4988407887 0.2148474079 -0.1611525941
0.4031360480 0.2469999939 -0.2418240736
0.5107522997 0.1769536721 -0.1256556943
0.6202548189 0.1599889896 -0.1949999928
0.5962207557 0.2017893958 -0.2701444513
0.5553245081 0.3186576260 -0.1516048630
0.5329053169 0.1386202875 -0.2045046771
0.3967728021 0.2460432060 -0.2523919804
0.5365022714 0.1823976694 -0.1749999970
0.5820159403 0.1703452600 -0.1333631534
0.4888243319 0.2589407180 -0.3360771666
0.4073051118 0.3029653692 -0.0863310667
0.3545058818 0.2306106341 -0.2379300720
0.6246637561 0.1768502195 -0.1494310473
0.5534737619 0.1577990932 -0.3271961650
0.6095869734 0.2599414400 -0.0082342692
0.4277309297 0.2139634142 -0.0910880481
0.3978659758 0.2322866212 -0.2325231955
0.5130805063 0.1582799172 -0.1959000927
0.4629689705 0.1648966955 -0.3110157777
0.3475233038 0.2753097547 -0.0464300613
0.4708777448 0.2986470837 -0.0558518909
0.5833996840 0.2985308227 -0.1084491665
0.4342606096 0.2161090842 -0.1051566172
0.4882775936 0.2617345933 -0.3104423387
0.5567675678 0.1418741768 -0.3037494749
0.4207914080 0.2199243135 -0.0745758950
0.4654023131 0.3184127633 -0.1030689651
0.4183586653 0.1771273880 -0.3185967320
0.6199976992 0.2524623853 -0.1885125065
0.3946804200 0.2731526703 -0.3553774417
0.3615810791 0.2898823735 -0.0348989549
0.5181162893 0.2633305580 -0.2554897600
0.3519496247 0.1665552260 -0.2838730646
0.5356517785 0.2628516030 -0.2240662829
0.6364865465 0.2212841862 -0.1562836175
0.5273021247 0.1899999976 -0.1571288209
0.5802475131 0.3074538463 -0.0932039741
0.5565257761 0.1610166695 -0.1759666629
0.5644716544 0.2049031988 -0.3274672956
0.4200939135 0.2230946797 -0.0886554820
0.5890258561 0.2711570155 -0.2144334960
0.5469791357 0.1389976288 -0.3190232175
0.5780167759 0.2110450643 -0.2982472221
0.6413524336 0.2558117871 -0.1627304007
0.3488837164 0.1920925615 -0.3321865118
0.3993327981 0.2741844876 -0.0782855394
0.6405404384 0.1825255174 -0.1650000066
0.6476406233 0.2329393818 -0.1536673431
0.3926278347 0.1710000038 -0.2664589265
0.6239847769 0.2246316905 -0.1934520524
0.5249140636 0.2380053880 -0.3515214001
0.3632261739 0.2983214952 -0.0269952413
0.5599301544 0.3165763734 -0.1581852230
0.5114441886 0.1617813350 -0.1850000024
0.4871481753 0.1969376392 -0.1251325967
0.6586379918 0.2207387765 -0.0853488388
0.4247817577 0.2880739215 -0.1454428619
0.5613559104 0.1496440798 -0.2145139309
0.5655906203 0.1577854212 -0.1787285569
0.6249276452 0.2782662569 -0.1371436830
0.4172136649 0.2304043500 -0.0952714880
0.3670594841 0.3368298754 -0.0315255146
0.4234844610 0.2507930973 -0.0975708560
0.5282570852 0.1690207202 -0.1101554025
0.4125392208 0.2086008469 -0.2461285961
0.4570159446 0.2520946217 -0.2696592601
0.5457489590 0.1687826412 -0.3422704422
0.4928038945 0.1704418184 -0.0106257536
0.4481722195 0.1780963788 -0.0171806164
0.4447893939 0.1712590622 -0.2941514352
0.4064724939 0.3126825230 -0.0908710285
0.4336683338 0.2556285878 -0.3124006424
0.3294314851 0.1749384706 -0.2932307746
0.5692051928 0.1518694213 -0.0260776742
0.4418257870 0.2597447916 -0.1742661203
0.5113034293 0.1668794564 -0.0605653754
0.3877381030 0.2469999939 -0.2467364891
0.4461587945 0.2240717961 -0.1791288223
0.4117606626 0.2698487926 -0.0988229265
0.6277065814 0.2783039534 -0.1202816350
0.4461313900 0.2335743255 -0.1607433897
0.6510028901 0.1700126033 -0.1746793346
0.4907830063 0.1573297534 -0.2948120569
0.3574548370 0.2935881754 -0.0066911122
0.6512551684 0.2114151169 -0.1003234584
0.5600834640 0.1487779537 -0.2241552139
0.5955270730 0.1501908802 -0.1994812991
0.6485120052 0.2039991711 -0.0424920327
0.5418175174 0.1628488588 -0.0796311400
0.4315420899 0.2939873969 -0.1215314570
0.6290000081 0.2614226168 -0.1060810144
0.5520537308 0.1777006906 -0.1397006890
0.4459603373 0.1767362099 -0.3499014477
0.4951569216 0.1626062176 -0.1901780293
0.4851627025 0.1983048176 -0.2497297301
0.6046261488 0.2159392366 -0.2225180080
0.3600021812 0.1986634606 -0.3442175929
0.4734589209 0.2087567927 -0.1378052619
0.4254529569 0.2702447043 -0.1265072171
0.5732402221 0.1656914123 -0.2966892435
0.3294858518 0.2193852583 -0.2663129580
0.4788492703 0.1719122958 -0.3316306717
0.4757387956 0.1644136047 -0.2708350148
0.6443327978 0.2222047256 -0.0617333348
0.4100555311 0.2612047324 -0.3280589214
0.4387244329 0.2754552553 -0.3516408973
0.4303327858 0.2597898171 -0.2765112861
0.4020578393 0.2784168936 -0.3559147627
0.4088422018 0.1951409952 -0.2300000042
0.5856396567 0.1846396545 -0.2794310378
0.6368407626 0.2366317760 -0.0382414994
0.4311039916 0.2156824934 -0.0814456532
0.5559028981 0.1425048089 -0.3054422471
0.4925100127 0.1654649519 -0.2151399671
0.4376549617 0.2709999979 -0.3414919576
0.5105659786 0.1550000012 -0.2906464645
0.5643670788 0.1669291117 -0.1035017276
0.4758872012 0.2075792588 -0.1254065010
0.5059271901 0.1483390578 -0.2520280967
0.5288231596 0.2087127213 -0.3577985726
0.4167340772 0.2171846939 -0.0829330863
0.4263791730 0.3571498933 -0.0124532619
0.6313635852 0.1712530701 -0.1847701334
0.5921858583 0.2613489235 -0.2505412215
0.4879402731 0.2061216738 -0.2584926968
0.6363402100 0.2627468398 -0.1594821684
0.4329064147 0.2854592962 -0.1448086210
0.6247038455 0.1831500727 -0.1668291343
0.3725379754 0.2479682015 -0.0423445848
0.5361695481 0.1388753538 -0.2136867185
0.5883957953 0.1910502868 -0.3199999928
0.6093190977 0.2509007943 -0.1926291164
0.5430259161 0.1380244621 -0.2399226228
0.4238311527 0.1957997485 -0.0418642542
0.5873872937 0.1893872679 -0.2686738597
0.6096176518 0.1561220278 -0.0622264740
0.4362037351 0.2799620336 -0.1253089504
0.5184182922 0.1528737063 -0.3141714933
0.4895825799 0.1582475564 -0.2838393843
0.5946523097 0.2721674001 -0.0307343991
0.4619418744 0.3101454363 -0.0300941233
0.4935257093 0.3126190173 -0.1255115666
0.3858381301 0.1763907583 -0.2739534084
0.3949718190 0.2113593947 -0.0492356737
0.5113927136 0.1477648149 -0.2034834788
0.3529822328 0.2213313967 -0.2552256107
0.4368988151 0.2600156720 -0.3223562806
0.6514195607 0.2653543297 -0.1282219090
0.5764075327 0.1639590453 -0.1098976198
0.4514623369 0.2632240488 -0.3280601241
0.4713163420 0.1747882556 -0.2578069517
0.6187292230 0.1602748161 -0.0149623446
0.6014192141 0.1605558191 -0.1990406699
0.6507999093 0.2100834908 -0.0300460681
0.5752418344 0.2316217809 -0.3068939578
0.6225224734 0.1613624003 -0.1845417000
0.4936677267 0.1508330703 -0.2200145710
0.5636293915 0.2131870616 -0.3218247270
0.5887471160 0.1450465243 -0.0215196686
0.6268758273 0.1560535521 -0.0728238787
0.6390332745 0.2524556419 -0.1752162762
0.4915242954 0.2613234157 -0.3212992651
0.5665696236 0.1553544438 -0.2390669642
0.3634807156 0.2768283083 -0.0249918414
0.5130579728 0.3077783430 -0.1732566415
0.3590409287 0.3420494481 -0.0373246011
0.5826143749 0.1389680779 -0.2000000030
0.6259207176 0.1863614323 -0.1521585193
0.5927870132 0.1950871492 -0.2762827931
0.5632155021 0.1506206905 -0.2151916104
0.4012705528 0.2698597808 -0.0954986440
0.4800790435 0.2173416187 -0.1631052473
0.5158294122 0.1445223415 -0.2488812030
0.3692675343 0.2695409836 -0.0352148990
0.5386796268 0.1394846472 -0.3127681993
0.4627502237 0.2415376025 -0.1981251864
0.5969798401 0.3034272638 -0.1262349247
0.6510938375 0.2333984113 -0.1333270699
0.4282938259 0.2997304350 -0.1366922167
0.4011006531 0.1878535668 -0.2512238447
0.3382699330 0.1969701005 -0.3215923983
0.4116129061 0.2128839448 -0.2592710430
0.4773827154 0.2674410228 -0.2875772394
0.4625653651 0.3001769745 -0.1446770381
0.3588828883 0.2372371397 -0.3092042390
0.4802840832 0.2783839794 -0.1876586151
0.5120679634 0.2467856307 -0.3576829924
0.6292457544 0.2455084529 -0.0405735882
0.4773795505 0.3070170228 -0.1376276942
0.5041937358 0.1662294686 -0.0540063337
0.5726345054 0.1677241939 -0.2288486601
0.6211177949 0.2787603212 -0.1521182311
0.4872629913 0.1568335803 -0.2645839552
0.4122639306 0.1785329964 -0.3565246355
0.4109409660 0.1740390303 -0.3434634509
0.4910765664 0.1629631536 -0.3219461597
0.3898554286 0.2536289236 -0.3021278377
0.4486368152 0.1675021303 -0.2664350839
0.5720974545 0.2903231975 -0.1947805040
0.3733412215 0.3496416756 -0.0568032420
0.5916968345 0.1649796686 -0.1216528058
0.4888309713 0.1842351801 -0.1245006515
0.5140398095 0.1680538162 -0.0476354621
0.3642595124 0.2877918416 -0.0249625027
0.6276357196 0.2623609804 -0.1490302267
0.4602616573 0.2135094651 -0.1358570565
0.3528892531 0.3326835185 -0.0149178670
0.6508246946 0.1701786760 -0.1747751359
0.4360127997 0.1850000024 -0.0156514597
0.4810992016 0.2908529774 -0.0349075348
0.5494354275 0.2702213186 -0.2383389669
0.4378424220 0.3549999893 -0.0052260156
0.6228026796 0.2439151211 -0.1844923170
0.5231302308 0.1435966811 -0.2335190931
0.4919162001 0.1516958199 -0.2335929189
0.4939999878 0.2265195116 -0.2596526115
0.6256297821 0.2686943161 -0.1133836941
0.4877813616 0.2872968189 -0.1984542327
0.4279232248 0.2988486537 -0.1134024778
0.6575660286 0.2244939504 -0.1235848666
0.4724623346 0.3164624883 -0.0054773682
0.4690306620 0.2625015379 -0.2000000030
0.6144903826 0.1498105087 -0.0771596583
0.6236916813 0.2520392826 -0.2071765400
0.6124810705 0.2776671110 -0.1633338812
0.4414587981 0.2659753431 -0.3299052685
0.4413644070 0.3161282878 -0.0774396389
0.6352300548 0.2112699123 -0.1674439994
0.6258156433 0.2310095591 -0.1857853290
0.5279485339 0.2185856454 -0.3547672414
0.4842844200 0.1858211023 -0.2408202708
0.6036236784 0.1513932739 -0.1941613208
0.3371157134 0.3177537849 -0.0462256704
0.5194546964 0.1499797766 -0.2898988450
0.4799041754 0.1789878764 -0.1011132858
0.5763805115 0.1577014872 -0.0428358218
0.4437993787 0.2928073887 -0.1249188821
0.5501375091 0.2720075447 -0.2193501924
0.6529736775 0.1968058447 -0.1075529362
0.5719838965 0.2987360282 -0.0764248383
0.6335552422 0.2489343993 -0.1486119430
0.5525978056 0.3005709942 -0.1843863252
0.4186102741 0.2673628532 -0.1095676191
0.4051595829 0.1802037773 -0.2307258660
0.5844494746 0.1990033718 -0.3177584377
0.4618422738 0.2192558950 -0.1477903898
0.3605595965 0.1702089981 -0.3224417975
0.4991821055 0.1559934898 -0.3047248114
0.4137166333 0.1758812543 -0.2831714050
0.6225226758 0.1958916691 -0.0598406195
0.5577436407 0.1958318301 -0.3343926948
0.5159557545 0.2299179027 -0.2275507050
0.5043838769 0.1561110439 -0.2201120756
0.5418014427 0.1592484180 -0.0540139548
0.5857834968 0.2003836455 -0.2860235603
0.3736982909 0.2448865065 -0.3139341995
0.4473639792 0.2528901310 -0.2711210058
0.3579721111 0.3404941847 -0.0558445777
0.4420683495 0.2541890095 -0.3126437146
0.3393299638 0.1653377825 -0.2912268938
0.6132816738 0.2718379135 -0.1698361129
0.3830462202 0.3586484149 -0.0178909390
0.3322961896 0.1986160521 -0.2315341852
0.4706311226 0.1738340326 -0.3275644889
0.4406468193 0.2314729492 -0.1146628154
0.3635307689 0.2777852843 -0.0351191343
0.5034581607 0.1996193150 -0.1695930516
0.3473148557 0.2060674500 -0.3344952682
0.6194683637 0.1458866683 -0.0277131288
0.5584973333 0.3179999888 -0.1412035851
0.5405762858 0.3194737399 -0.0900000036
0.6289466374 0.1968360324 -0.1499960878
0.4287406662 0.2758710891 -0.3557105512
0.4876193983 0.2681680242 -0.3020729470
0.3572632821 0.1741728757 -0.3324409379
0.4201380996 0.2131770050 -0.2516291198
0.5419237543 0.2187571304 -0.3440366416
0.5866515466 0.2984929908 -0.1676810769
0.6136306993 0.1563220985 -0.0976914048
0.3465860871 0.3277348846 -0.0381562074
0.4032609201 0.1771991888 -0.3555250129
0.3264777926 0.3226567608 -0.0511488925
0.5797535690 0.2330864895 -0.2817774882
0.4741546210 0.3133189401 -0.1560234831
0.4877735343 0.1651031394 -0.2362682284
0.5610447405 0.1693910315 -0.1229327311
0.5050262835 0.2506879819 -0.2596522719
0.6454528571 0.2132754466 -0.0464986078
0.4836525014 0.2975823222 -0.0298305034
0.4602189002 0.2863172373 -0.1598422825
0.5783784683 0.1732974418 -0.2940980322
0.4063777497 0.2556614534 -0.0829096042
0.5270053496 0.1484313233 -0.2047060416
0.4601990018 0.2588212545 -0.3220066895
0.5346436951 0.1585074932 -0.0339762056
0.3639078434 0.3417664401 -0.0388905749
0.3791678861 0.1841431308 -0.2471421774
0.6300506706 0.2483807125 -0.1762038747
0.4638436893 0.1819966255 -0.0901973717
0.6577592682 0.2335848669 -0.1173495476
0.4117580091 0.2286520848 -0.0893506306
0.5491261971 0.2712523462 -0.2515267315
0.4382450136 0.2558179527 -0.2657826315
0.6283071596 0.1872480262 -0.0482410520
0.4808186721 0.1724883284 -0.0220042527
0.5371916429 0.3048159364 -0.1954652992
0.6524689231 0.2174737334 -0.0919226483
0.5760200696 0.3059999943 -0.1048555627
0.5658375504 0.2226817479 -0.3193507004
0.3553478922 0.3097254257 -0.0271695382
0.4953258465 0.1804554642 -0.2249999940
0.6179889347 0.2313825224 -0.2423348599
0.6457715013 0.1938025505 -0.0692027598
0.6358415922 0.1597530906 -0.0960840416
0.4822570797 0.1568286156 -0.2362867895
0.5117587857 0.2413308004 -0.2341075108
0.6057126866 0.2847639297 -0.1653254567
0.4618293356 0.1729999930 -0.0113437665
0.4066492748 0.2568145373 -0.3198943784
0.5759675266 0.1763352411 -0.1497478858
0.5801597901 0.1561475699 -0.1825813805
0.3569595451 0.3352902827 -0.0059057282
0.4301627741 0.2937353993 -0.1462510572
0.4105509625 0.1874459774 -0.2460004663
0.6240000129 0.2424464821 -0.2218131181
0.5139257045 0.2898024651 -0.0105925802
0.5429392621 0.3174484543 -0.1524894031
0.4378359814 0.2709999979 -0.3406311425
0.4988903618 0.2567311738 -0.3396087843
0.6487144269 0.1833401841 -0.0270403844
0.5591798722 0.3084748654 -0.1591455951
0.6220745664 0.1816725950 -0.1405830008
0.6148732331 0.1608635199 -0.0416585737
0.4014601207 0.2820525464 -0.0905246511
0.4825698626 0.1754938156 -0.3597659307
0.3668986159 0.2030929649 -0.3509070093
0.3571544248 0.2792427575 -0.0398069601
0.5282131789 0.3073715614 -0.1936581953
0.4780240729 0.2160000056 -0.1545790997
0.4294758573 0.2518077600 -0.1534353085
0.6344972389 0.1802274665 -0.1540400209
0.4216654955 0.2752133505 -0.3397050214
0.5118460806 0.2521226881 -0.3375009381
0.4326257668 0.2399627135 -0.1374946483
0.5347342079 0.2784577444 -0.0497804767
0.5351758693 0.2288540578 -0.3511827932
0.6085837156 0.2992671704 -0.1310435575
0.3160000145 0.1935582613 -0.2969885319
0.3363246602 0.2123338376 -0.3216604691
0.3672031611 0.1709987451 -0.2890094527
0.5845529010 0.1395135436 -0.2000000030
0.4290874316 0.2192215191 -0.2442395251
0.6381299773 0.2253846235 -0.0099999998
0.6453797714 0.2549408031 -0.0938851543
0.4559602805 0.2251691930 -0.1404070648
0.6430236607 0.2379199567 -0.0668866261
0.3978999829 0.1930550521 -0.2436811912
0.4859432777 0.2160000056 -0.1451579870
0.4087829363 0.2811390460 -0.0983009161
0.5773579508 0.3118145178 -0.1209802107
0.6085867565 0.2860796310 -0.1149764940
0.5588518164 0.1661483228 -0.0953704396
0.3903832422 0.1734053660 -0.2985051959
0.5596499159 0.2458098308 -0.2981183371
0.4886205376 0.1674317997 -0.0605080838
0.5289594866 0.1876081441 -0.1703456365
0.6244566140 0.2568957756 -0.1618112715
0.3816828323 0.2282660578 -0.0550630096
0.5466318399 0.2225572882 -0.3316135001
0.3547717572 0.2907992789 -0.0157242690
0.4406068077 0.2384499884 -0.1415284454
0.3924188700 0.3555346253 -0.0151186455
0.5333821765 0.2345037214 -0.3421336688
0.6307108880 0.2674747479 -0.0973706396
0.5735868945 0.1694138751 -0.1261492248
0.3605836180 0.1814936522 -0.2300000042
0.3585834865 0.2367404753 -0.3361433685
0.3628168536 0.2400656619 -0.2603129350
0.4886770356 0.2986071743 -0.1736867966
0.5317751967 0.2674223075 -0.2889669551
0.3434643254 0.2018643564 -0.3273274931
0.4944648106 0.2729657458 -0.2938882217
0.4768785202 0.1745548611 -0.2486156576
0.6361122093 0.1890028981 -0.0870999373
0.4111881766 0.1853984052 -0.2560510850
0.3816131059 0.2483544586 -0.3192367220
0.3965359180 0.2589529491 -0.3598465405
0.6084346185 0.1594012728 -0.0710236661
0.6438530053 0.1909797203 -0.0186784934
0.4088796069 0.2136097486 -0.2365007962
0.6063778719 0.1588014087 -0.0814807811
0.5252092585 0.1723548293 -0.3598332469
0.6076230038 0.2572624224 -0.2239114078
0.4781547268 0.1606553936 -0.2805468591
0.5278023004 0.2546240515 -0.3205243625
0.4067205890 0.2811368280 -0.1397994626
0.5046252702 0.3003250005 -0.1833749898
0.5198598885 0.2466645572 -0.3516264843
0.4713286160 0.2618712206 -0.2930099836
0.5656116550 0.2727826943 -0.2270757501
0.5214919963 0.1422756798 -0.2045735175
0.5075578437 0.2322102257 -0.2328695668
0.6095445701 0.2458380795 -0.2527710590
0.4831995500 0.1647645323 -0.1860074509
0.4301463876 0.2187709683 -0.0822819943
0.5527738738 0.3011350276 -0.1927601166
0.5032607550 0.1597438176 -0.1952418856
0.5791663550 0.3110509468 -0.1546178219
0.4710260179 0.2616983019 -0.1959425597
0.4875677758 0.2946546539 -0.0155641674
0.6362596443 0.2799839146 -0.1262558061
0.6167185238 0.2799364763 -0.1389178265
0.4274195688 0.3061094551 -0.0596785709
0.4854083190 0.1718234753 -0.1400000006
0.6360382499 0.2454316283 -0.1103061333
0.6618396667 0.2077986721 -0.1206977243
0.5689411928 0.1589118095 -0.2492679484
0.4840506497 0.1594256168 -0.2725218698
0.5417606291 0.1433263848 -0.2019579290
0.5835722614 0.1621096955 -0.1040219536
0.3972273529 0.2088855922 -0.0507434032
0.3523397940 0.3069024941 -0.0391961993
0.5600345383 0.1483420712 -0.2680042066
0.6236633643 0.2459255279 -0.0149948310
0.3712151737 0.2521187532 -0.2875044614
0.4479884058 0.2392507478 -0.1527468835
0.6393874270 0.2111780791 -0.1398096918
0.5294376240 0.2371108251 -0.2102363660
0.5943092773 0.1988728496 -0.2511397340
0.5533192971 0.1375391925 -0.2408949626
0.3591423932 0.3500220006 -0.0649396810
0.5454735188 0.1634889055 -0.1804134098
0.4290387136 0.2123095425 -0.1700484058
0.6286912679 0.2618289251 -0.1065209698
0.4332785837 0.3127335095 -0.0500000007
0.6218531144 0.1742959786 -0.1660816758
0.3639723054 0.2904798412 -0.0155515585
0.6262799786 0.2646419330 -0.0854000352
0.6546495117 0.2154679312 -0.1273504916
0.4428923345 0.3148942688 -0.0458119484
0.4360275534 0.2284683244 -0.1634409734
0.4233638753 0.2655699790 -0.1349745354
0.3736131713 0.2462414854 -0.2788918003
0.6000034917 0.1542128129 -0.0665830735
0.6025527875 0.2849999964 -0.0746147970
0.6453097529 0.2081058597 -0.1324456825
0.6082329362 0.2609866126 -0.2134611168
0.3947088464 0.3429944598 -0.0380532447
0.4526848445 0.3185955904 -0.0351576937
0.4958330724 0.1733414737 -0.0829818225
0.4462243745 0.3246745760 -0.0320395128
0.4547352012 0.2817517499 -0.1559022030
0.4808186641 0.2792357212 -0.1983813362
0.5942954421 0.2001590607 -0.2145997357
0.6072790747 0.2474351904 -0.2556386253
0.4132882494 0.2772960507 -0.1344637542
0.6132371517 0.2924842431 -0.0867281525
0.4281345231 0.1923331894 -0.0294446849
0.6425874457 0.2358235401 -0.1697072408
0.3596968080 0.3315643332 -0.0291838556
0.6727433381 0.2192849910 -0.0850000009
0.6068150532 0.2763415150 -0.0667807016
0.4819321255 0.3123156006 -0.1456554144
0.6421988817 0.1984983737 -0.0469240694
0.4560975382 0.2252322064 -0.1399457709
0.5923194952 0.1573090231 -0.0973729175
0.4414999521 0.2596955144 -0.2915922205
0.5436887855 0.1362300395 -0.2206314788
0.5400000215 0.2275321004 -0.3417185544
0.4573674246 0.2744385846 -0.1733872102
0.6170109847 0.2313516654 -0.2584213549
0.3771068215 0.2090893365 -0.3550891718
0.5933833372 0.2027921806 -0.2793611022
0.4140702713 0.2957091274 -0.1049999967
0.5142850620 0.3179999888 -0.1597122176
0.4168399135 0.2445486147 -0.1096569661
0.3833057912 0.2433161197 -0.2482659684
0.3853702771 0.1763557665 -0.3274201563
0.6255848209 0.1860052551 -0.1932366003
0.3828145723 0.2568181023 -0.0670808745
0.3945205260 0.2486187903 -0.2396040248
0.4707675521 0.2077463514 -0.1366759494
0.5208245197 0.1540003162 -0.1978784892
0.4825022786 0.1783542225 -0.0845520409
0.3355923164 0.1659178440 -0.2842400374
0.6152491813 0.1588261223 -0.0530000829
0.4076322942 0.2389999926 -0.2488571135
0.5216481560 0.3161157461 -0.1112731592
0.6107322931 0.2245268278 -0.2210273086
0.4579075604 0.3063225568 -0.1594026889
0.5196810059 0.2834125622 -0.0425748818
0.5685402551 0.2714943868 -0.2565824255
0.4678352497 0.3375683717 -0.0222301203
0.4533541592 0.2182680613 -0.1210828894
0.4327735943 0.3051530302 -0.1287900467
0.4133508477 0.2791370791 -0.3422741675
0.6534160550 0.2395419379 -0.0980237262
0.6481203950 0.2179785796 -0.0352472402
0.4135381599 0.1828936199 -0.2634042463
0.3977933916 0.2887010047 -0.0750939166
0.6180239877 0.1654510106 -0.1761702369
0.5098385830 0.2451979795 -0.2537549979
0.4816545148 0.2720424165 -0.2654000849
0.3188902653 0.1866189480 -0.2828229320
0.4819565115 0.1951905669 -0.1344544724
0.4450764910 0.3048416453 -0.1224731031
0.5948301617 0.2590591617 -0.2500000000
0.5716991485 0.1481660441 -0.0149376518
0.4008436984 0.2233216513 -0.0658947959
0.3330579909 0.1995612894 -0.3134299937
0.5147458423 0.3070945133 -0.1935956469
0.6327340827 0.2403242023 -0.1517078962
0.6121193110 0.2221894123 -0.2066508971
0.3597488829 0.1833182276 -0.2390798171
0.6348836048 0.1854727084 -0.0970032589
0.3676625581 0.2329928729 -0.3495017747
0.3436262170 0.2793179745 -0.0599999987
0.5319485913 0.2724974935 -0.2619614032
0.4764114853 0.2661697587 -0.2855280398
0.6204537315 0.2841974518 -0.1745089084
0.3777621426 0.2520000041 -0.2941882646
0.4970856638 0.1787350135 -0.2122417897
0.4716850381 0.1777007389 -0.0199513838
0.6006078961 0.2066798479 -0.2591813895
0.4197433962 0.3309286362 -0.0492117448
0.6427915054 0.1828922276 -0.0860097950
0.5010845235 0.2616550285 -0.3472775602
0.6272796069 0.1535821291 -0.0937041861
0.4953887500 0.2638974778 -0.3551354774
0.3199826674 0.1973024007 -0.2785219903
0.4689747219 0.2756893225 -0.1737367020
0.5602861419 0.2315297728 -0.3190037474
0.5856104877 0.3077875089 -0.1021972268
0.6024474046 0.2096711172 -0.2492618683
0.3384064332 0.1884236608 -0.3149999976
0.6507408873 0.2505026623 -0.1714483090
0.4683079071 0.2572719828 -0.3001366661
0.6109561231 0.2242704241 -0.2083223209
0.4591226712 0.2387674720 -0.1623577034
0.5993030456 0.2081826268 -0.2606775183
0.4369046699 0.2340615256 -0.1724526914
0.4528924381 0.1714683511 -0.3006991076
0.4059448224 0.3567509750 -0.0158125398
0.4323840587 0.2619999945 -0.2659322058
0.5366036516 0.2686564850 -0.2529326026
0.4195544480 0.1880817167 -0.2401362394
0.6366555382 0.1653569436 -0.0817945463
0.4761283043 0.2682700677 -0.1895605963
0.5999475579 0.2179344296 -0.2689471415
0.3526000992 0.1813903641 -0.3277640690
0.4779999852 0.1686195525 -0.2393666898
0.3236731315 0.2140254035 -0.2732780312
0.5112800829 0.2579352144 -0.2573950981
0.6444123119 0.1736492733 -0.0215137930
0.5681704043 0.1577556229 -0.2198777822
0.5451843135 0.1809689385 -0.3459221374
0.5827823776 0.2183207697 -0.3004878026
0.6296109470 0.1504808443 -0.1759062217
0.3799234751 0.1769071575 -0.2576499085
0.4492083822 0.3006461907 -0.1571927082
0.5802056460 0.1762938018 -0.2500147151
0.4617386782 0.1859383459 -0.1016658623
0.6509149614 0.1792535420 -0.1147873499
0.3489723800 0.2656446924 -0.0585138050
0.6300004122 0.2580132345 -0.0947888466
0.6095418560 0.2719705498 -0.1792869397
0.4474690682 0.3035450109 -0.0497277168
0.4737326860 0.1667326897 -0.3543877874
0.5550028033 0.1865255304 -0.3380771412
0.3657417921 0.1881359661 -0.3518708902
0.5252609365 0.1589857853 -0.1887476594
0.3282395050 0.3115536705 -0.0597459864
0.4252928756 0.3326812764 -0.0313872744
0.5349292224 0.1747276419 -0.3569503046
0.5135080511 0.1443565543 -0.2389790741
0.4484908561 0.3150372363 -0.1048758676
0.4355292634 0.3052443495 -0.1179650422
0.3604034342 0.1654585761 -0.3393391003
0.6362996658 0.2179674784 -0.1808641514
0.5788563017 0.1467672073 -0.0232381819
0.4191511248 0.1941550470 -0.0171835052
0.3497917907 0.2263632393 -0.2639387202
0.5197448934 0.2404079914 -0.2283020890
0.5335272479 0.2702370567 -0.2787664244
0.5808637826 0.1813244082 -0.3181480267
0.6492404893 0.2372628826 -0.0837095840
0.5001928707 0.1713805361 -0.3600000143
0.5715391272 0.3102770826 -0.0964458137
0.4686974257 0.2729416081 -0.1971321431
0.6486993978 0.1882765721 -0.1168403560
0.4499128336 0.2680936337 -0.1738386436
0.5797927986 0.1756546871 -0.2294115299
0.5770000219 0.1724208666 -0.2388835742
0.5959021670 0.2665489205 -0.2219423524
0.6066629003 0.2533705494 -0.2354449891
0.5578001764 0.1688777277 -0.1145924291
0.6367437204 0.1627219992 -0.1212997389
0.6106234529 0.1669072873 -0.1607150674
0.5354458226 0.2828458378 -0.0216369053
0.3492633401 0.1758228611 -0.3191388861
0.4406281336 0.2595208863 -0.2741318660
0.6562975707 0.2354813332 -0.0892294989
0.5294880936 0.1629290155 -0.0410650461
0.4805982468 0.2584826226 -0.3198774281
0.5051431987 0.2072032568 -0.2320398800
0.6620921399 0.2296230709 -0.0794406383
0.3537016257 0.2177212245 -0.3421571428
0.5815229470 0.1587363253 -0.0939894008
0.3470000029 0.2025414348 -0.2542671854
0.4404688378 0.2660746970 -0.3306802397
0.5873535051 0.3070247224 -0.1229438401
0.4508489016 0.3615154703 -0.0207620585
0.5509971248 0.1710000038 -0.1224698361
0.4276222304 0.2829443831 -0.1533796855
0.3922377787 0.1897281207 -0.2576244483
0.4148234405 0.2545333353 -0.2936596591
0.5872581493 0.2028712179 -0.3071766324
0.3581911015 0.2708114171 -0.0488812224
0.3214203116 0.1802408867 -0.2884171594
0.5371264577 0.2554129149 -0.3150795637
0.3826183428 0.2164345524 -0.0508333189
0.4222025118 0.2361898265 -0.1076794304
0.4897250200 0.1762061217 -0.1040578033
0.3897471427 0.3535442188 -0.0238014203
0.6045296584 0.2152966789 -0.2062783525
0.4693748789 0.2571634827 -0.3341825914
0.4549753069 0.2588999146 -0.2921448850
0.3796815704 0.2433350822 -0.0278016815
0.5282187082 0.2765940153 -0.2735940241
0.5567352586 0.2103766480 -0.3309346756
0.3900600874 0.3610940519 -0.0550013063
0.6420127016 0.2166480211 -0.1459078905
0.4126443242 0.3587216690 -0.0058198587
0.4020924432 0.1716059881 -0.2645671402
0.4539510665 0.2523364097 -0.2791779764
0.4548637331 0.3107193990 -0.1190998273
0.5441754340 0.1724813526 -0.1368575152
0.4627505090 0.2281895402 -0.1996874221
0.4778168180 0.3213751113 -0.0191046244
0.4159850574 0.1924794847 -0.2571735049
0.5361970884 0.1416633028 -0.2685031336
0.6551228775 0.2474531984 -0.0916276437
0.5648059512 0.1780000031 -0.1489167761
0.6314711324 0.2298266892 -0.2008599731
0.5074439330 0.3199999928 -0.1431180228
0.5872021524 0.2630537831 -0.2426344660
0.4604595208 0.3374836031 -0.0149999997
0.5461890032 0.2098342107 -0.3471218241
0.6186825178 0.1688121557 -0.1437241664
0.5254992712 0.2995054288 -0.1972355926
0.5816552263 0.1641360709 -0.1684742385
0.6211029880 0.1524699490 -0.0333103128
0.3724474619 0.1776723954 -0.2757972968
0.5382941200 0.1682719709 -0.0989623388
0.5867781606 0.1675727471 -0.1625735751
0.3816034691 0.1718536696 -0.2951249096
0.5694565409 0.1451462571 -0.1978438959
0.4756971058 0.1710076826 -0.0293523005
0.5565118793 0.1448465421 -0.2502689324
0.4756439195 0.3071024452 -0.1382683603
0.4333037729 0.2575882069 -0.1321523334
0.5947511597 0.2720179729 -0.2057710612
0.6297535159 0.2446569929 -0.0312078446
0.5475507534 0.3158666028 -0.0864443480
0.5165022637 0.1694657050 -0.0736913412
0.5186540879 0.1915323173 -0.1631527559
0.4509789969 0.2064225413 -0.1991093922
0.5264607418 0.1709223663 -0.1224249976
0.5037962831 0.2668629168 -0.3231499787
0.4741977523 0.3154847889 -0.0831547800
0.5015631009 0.1885188009 -0.2131075528
0.4195172381 0.1875202087 -0.2494768276
0.6002921755 0.2091536491 -0.2138806659
0.3786647918 0.1851187610 -0.2380533762
0.4742498242 0.3190748431 -0.0995625523
0.3920867352 0.3563487535 -0.0109803158
0.6449663158 0.2023214669 -0.1043097702
0.4496872445 0.2698803996 -0.3569403887
0.3552415016 0.3143589880 -0.0078776127
0.4429306940 0.2851569875 -0.1483757700
0.5068798636 0.2154732494 -0.2285335450
0.6020396261 0.2886458517 -0.0926467846
0.5736577755 0.2347242680 -0.2887954368
0.4878548185 0.2150045165 -0.1561601764
0.4144697054 0.2780602678 -0.1148175551
0.4650000036 0.2393575161 -0.1995522317
0.5098514770 0.2535246783 -0.3481544884
0.6261303641 0.1691627376 -0.1710187238
0.4490300592 0.1777734869 -0.0528504808
0.5538180391 0.1378343904 -0.2313191182
0.6191076243 0.1543469380 -0.0616707485
0.6487201733 0.2187400335 -0.0251472546
0.4323415282 0.3286492436 -0.0547006954
0.5127243956 0.1955138094 -0.1542864529
0.5004392415 0.2244383177 -0.2515147137
0.3595489649 0.1839933183 -0.3467151405
0.3893695588 0.2405766993 -0.2376712256
0.6028006006 0.1609223749 -0.1044194841
0.4074623281 0.3142092554 -0.0687875668
0.4853143972 0.3144555880 -0.1572250992
0.5728014463 0.2958957391 -0.1837155198
0.6526565842 0.2027980980 -0.0960782053
0.5531883953 0.1554148302 -0.1934443830
0.6251819741 0.1437801066 -0.0193154456
0.4932198880 0.2992065763 -0.1903478000
0.4707070787 0.1829558274 -0.1097791442
0.5629087648 0.3115048395 -0.1064951530
0.4403202419 0.2390706174 -0.1316954597
0.5072986641 0.3189697996 -0.1525585290
0.4104302612 0.2549538278 -0.2932187980
0.6328016358 0.1724474712 -0.0968720137
0.5072348417 0.1757713871 -0.0999844918
0.5191351188 0.1902198759 -0.1740799900
0.3511400540 0.3065272929 -0.0409532918
0.6141449649 0.1587340136 -0.1131758970
0.4473513810 0.2781399818 -0.1673985031
0.4748490402 0.1759528481 -0.3536091304
0.5955940508 0.1494760921 -0.1992898467
0.6084984357 0.2216646021 -0.2476857348
0.4848962139 0.1842891842 -0.1159573245
0.4911303991 0.1716309778 -0.2288524119
0.4799015797 0.1958784916 -0.1794882083
0.3242868157 0.2064669015 -0.2658647499
0.4841956892 0.1972271709 -0.2597851579
0.3869658719 0.2194847565 -0.0416294253
0.3829999864 0.2331551345 -0.0277648914
0.6564797939 0.2397508099 -0.1744232306
0.5467396994 0.2352183564 -0.3266850085
0.4937233508 0.2848116528 -0.1749999970
0.5720636487 0.1693417208 -0.1353377936
0.4076788718 0.2736591691 -0.0822350720
0.4091942654 0.2140053486 -0.2338057264
0.5948642095 0.1510090632 -0.0157565058
0.4487091732 0.1710000038 -0.3178844569
0.4172340110 0.2341236975 -0.0787725294
0.3520514720 0.2266011931 -0.3359186831
0.4976957790 0.1815189687 -0.2249999940
0.4275660973 0.1744338930 -0.3315310071
0.4027071299 0.2088938828 -0.0431524342
0.4290110454 0.3162346638 -0.0778420436
0.5390984720 0.1857379357 -0.1559908696
0.6338989710 0.1811747170 -0.0721910449
0.6549042440 0.2151776786 -0.1270957591
0.4360654930 0.2654101710 -0.1273694699
0.6246009670 0.1944964076 -0.1584096244
0.5290409304 0.2006887088 -0.3588636185
0.6275433405 0.2714467550 -0.1570249511
0.5859953995 0.1577325959 -0.1754086323
0.5685754277 0.1569273196 -0.0378855694
0.4132462418 0.3099864801 -0.0775125523
0.5535763031 0.2801786367 -0.2049106805
0.5642893039 0.1591409535 -0.3243198532
0.5100234560 0.1862084494 -0.1767366588
0.6396803265 0.1959454128 -0.0924186452
0.5622661440 0.1503672633 -0.3160944744
0.5526280106 0.1454107567 -0.3136163488
0.6453367132 0.2134593238 -0.1790055115
0.3508324987 0.2213010267 -0.2381937702
0.3431435226 0.2848535861 -0.0476297494
0.5711153835 0.1627762208 -0.2076180545
0.4713122179 0.1796711506 -0.2049999982
0.6282948434 0.1635106693 -0.0176314015
0.6339126312 0.1793352591 -0.0436408047
0.4434334062 0.1895495739 -0.0627903996
0.4513848270 0.1955514750 -0.0947546015
0.4586401978 0.1823331466 -0.1893663540
0.5625647493 0.1626320484 -0.0858961433
0.5338936929 0.1410000026 -0.2236507134
0.5774978450 0.3157765309 -0.1364628760
0.6314966923 0.2625467855 -0.1400000006
0.4230266465 0.3185718676 -0.0617518341
0.6115341780 0.1528179406 -0.0863353942
0.5594515909 0.2888485463 -0.2012556803
0.5534775148 0.3171071546 -0.1110559188
0.4402325069 0.3056394208 -0.0575791336
0.6128351164 0.2787242999 -0.1503633916
0.3226164158 0.2138186414 -0.2855055895
0.4993027721 0.1504509496 -0.2280566469
0.4482437343 0.2966425806 -0.1454886776
0.3373522980 0.3044197503 -0.0506401434
0.6507618971 0.2103955103 -0.0301138235
0.3751358970 0.2272680503 -0.0111871693
0.6253483092 0.1685605572 -0.0243549578
0.4618561104 0.2058464188 -0.1889154157
0.6460588853 0.2042158415 -0.0396545023
0.4808521883 0.1944287188 -0.2412151279
0.4374955455 0.2503040872 -0.1597619848
0.5669475396 0.2423484466 -0.2921359365
0.4195098250 0.2903391299 -0.1116044975
0.4546161905 0.3096172911 -0.1172039050
0.3488092784 0.3325533036 -0.0299659783
0.3971280299 0.2934150884 -0.0913992085
0.4991535184 0.3033005998 -0.1722351937
0.5286445574 0.2648815145 -0.2315791073
0.4291032103 0.3140833915 -0.1006806119
0.5683587844 0.3134674744 -0.1594523665
0.5274963783 0.1465036063 -0.2953582225
0.4534363758 0.2069013592 -0.1398605529
0.5678463868 0.2841384149 -0.2022306603
0.5643934287 0.3106144507 -0.1667894873
0.4144724844 0.2957690589 -0.1306758648
0.4445252977 0.2047311769 -0.0961867370
0.5059623611 0.1585578906 -0.3282378544
0.5880928075 0.2024955326 -0.3060291925
0.4338172932 0.2571528239 -0.3025886080
0.6211254002 0.2530943184 -0.1998552051
0.6151100940 0.2269176902 -0.1989722980
0.5834148303 0.2327520546 -0.2726025979
0.5546492659 0.2994064618 -0.0750174190
0.4189501807 0.3081288910 -0.0948367626
0.4143967659 0.2395918754 -0.0991051764
0.5493527748 0.3145419182 -0.1591845335
0.4479256294 0.2392354834 -0.1526882748
0.5640565184 0.3077808690 -0.0817934329
0.5561968953 0.1408963666 -0.2205417146
0.4515275124 0.3413629337 -0.0092616907
0.5440141115 0.2710447013 -0.2658376858
0.4396884639 0.2921582357 -0.1435337469
0.3451005407 0.2105790551 -0.2595986914
0.4047361359 0.2932375518 -0.1479840259
0.4975136091 0.1753676199 -0.1013984606
0.5693377410 0.1517850723 -0.0273502305
0.3936558921 0.2606309043 -0.2701249360
0.4933770342 0.3095250247 -0.1650000066
0.5432085729 0.2722210246 -0.2577487628
0.6071733663 0.2778048711 -0.1707713129
0.3942539608 0.1910544379 -0.2453021296
0.3387810403 0.2237238113 -0.3026029763
0.3517463892 0.1837872540 -0.3415906377
0.3645549657 0.2411848419 -0.2711949273
0.4923629678 0.1585844207 -0.2399035300
0.5208508168 0.2717760053 -0.2649640092
0.6417198075 0.1838230548 -0.1355717417
0.4239743433 0.2998398037 -0.1248692026
0.4159127794 0.2911487384 -0.1499585203
0.4443900215 0.1720795532 -0.3046022314
0.6354963710 0.1902279267 -0.1358485625
0.6309842058 0.1958802990 -0.0591284554
0.5753688802 0.2176451062 -0.2922814634
0.4749637190 0.1706797088 -0.1916789670
0.6528555825 0.2381327867 -0.1076607528
0.6484406346 0.2312763956 -0.0640677099
0.4794523381 0.1781109628 -0.0721533466
0.4529867991 0.3496422523 -0.0164379696
0.6264975766 0.2641209176 -0.0749759583
0.4000344163 0.2643260765 -0.3244073756
0.5729663204 0.2436693323 -0.2790167256
0.6170649054 0.1867596099 -0.1993919271
0.5334809044 0.1875623231 -0.1495241148
0.6140935777 0.1589999944 -0.1655285352
0.4028340879 0.1851136351 -0.2380194824
0.3504264215 0.1866469402 -0.2612155635
0.5626164125 0.2715925399 -0.2172151120
0.4211573480 0.1773666256 -0.3474791377
0.4801979818 0.1953362171 -0.1796859599
0.5456091631 0.1948803027 -0.3487676180
0.6364306255 0.1589614610 -0.0934953122
0.4673270106 0.1693432243 -0.3193679473
0.6222785985 0.1744720422 -0.0118234133
0.5856883825 0.1719635300 -0.1528948646
0.4727103844 0.2689999938 -0.3594134619
0.6478633281 0.1988133344 -0.1793345413
0.5667907628 0.2831685545 -0.2019111752
0.4635475101 0.1812668319 -0.0773985282
0.3794587852 0.2437996521 -0.0260288742
0.5352213825 0.1541984787 -0.3330559843
0.5574509815 0.1744192791 -0.1680236422
0.6214445871 0.2885490577 -0.0853973606
0.6216433279 0.1688126282 -0.1911061430
0.3438043101 0.1733965754 -0.2863414548
0.5478392496 0.2696130757 -0.2282483263
0.4224369832 0.2573427401 -0.1053083345
0.6359234973 0.2240193988 -0.1895770600
0.5365224598 0.1607896033 -0.0638470812
0.4494738699 0.2341631928 -0.1197407572
0.5147848132 0.2689999938 -0.3108928589
0.4544688416 0.2262650380 -0.1301488728
0.5204593721 0.1425928673 -0.2233872303
0.5484765680 0.3199999928 -0.1419056565
0.6025478107 0.1660024727 -0.1563559104
0.5533640129 0.1455055996 -0.2018092985
0.3606900493 0.2730061624 -0.0098615918
0.5546564583 0.1689999998 -0.1065179651
0.4700942280 0.1792897335 -0.0682844921
0.5297459107 0.1900543515 -0.1582527342
0.5130258958 0.1507423892 -0.2807104862
0.4348297035 0.3056654828 -0.1296347429
0.5448849692 0.1384125679 -0.2897587118
0.5919706652 0.1912844629 -0.2284825121
0.5174874501 0.2524958273 -0.2330016545
0.6345737124 0.2325605388 -0.1760657726
0.3343423526 0.2186037333 -0.3142299424
0.4756484776 0.1846437668 -0.2299768890
0.4804853639 0.1622599943 -0.2993500254
0.3936196249 0.3604626112 -0.0644166814
0.3468221916 0.3347516737 -0.0503525424
0.3931478321 0.2619999945 -0.2694242781
0.5505476695 0.2601912103 -0.2810292987
0.4318099993 0.2942198060 -0.1216022300
0.4723123497 0.1852765859 -0.2599999905
0.3886822914 0.3454156139 -0.0599284702
0.5099227861 0.3133298868 -0.1264754511
0.5979190532 0.2971779593 -0.1451174428
0.6351741582 0.1678931220 -0.0243699206
0.3892847019 0.1765481064 -0.2985481109
0.4129778817 0.2393747307 -0.0894515400
0.5852577040 0.2000327033 -0.2867746954
0.6426284121 0.1969579643 -0.0833521239
0.6502526247 0.2281211474 -0.0342369759
0.3839135890 0.2597729953 -0.2651832152
0.5539386284 0.3117486344 -0.1701309921
0.4554888114 0.3426467687 -0.0070467116
0.4466372515 0.1960121905 -0.1994791208
0.6226226245 0.2580137584 -0.0269431264
0.4986289320 0.2077905946 -0.2419897565
0.5363430732 0.2201397430 -0.3528261337
0.5514661501 0.1598042192 -0.0744250903
0.6149994585 0.2727919052 -0.1562513744
0.3607181184 0.2103182688 -0.3448937436
0.6671946497 0.2131579057 -0.1248475027
0.5847080749 0.1909106859 -0.2858999385
0.4861098686 0.2610758182 -0.3287712922
0.6425310362 0.2217991348 -0.0409379412
0.5789668332 0.3156767922 -0.1287578151
0.3809820434 0.3567322649 -0.0066319499
0.4928264781 0.2909086750 -0.0325952453
0.5709999800 0.2339994548 -0.2987433812
0.4231105643 0.2571321887 -0.2976056469
0.6567756287 0.1874805287 -0.1222616001
0.4955618096 0.3123473754 -0.1563052395
0.4907369914 0.1675739261 -0.3334421231
0.5179415925 0.2537909136 -0.3282090785
0.4564692919 0.1689632857 -0.2868651390
0.6356269288 0.2421857168 -0.0636010470
0.3279107685 0.1874814430 -0.2649999857
0.6507273088 0.2610556422 -0.0827800305
0.3883322335 0.2530983851 -0.2916633411
0.4007864187 0.1710000038 -0.2776975618
0.5792414517 0.1769772277 -0.2808690167
0.4447779517 0.3158105036 -0.0774155893
0.4241428664 0.2232932239 -0.0962254868
0.5633575318 0.2693146073 -0.0024566095
0.5212266130 0.2840302875 -0.0388867207
0.3401613460 0.1813267910 -0.2645244922
0.6709474835 0.2386764606 -0.0853758966
0.3489847750 0.2029410281 -0.3348509805
0.6403282237 0.2182787022 -0.1048991403
0.4117170770 0.2176286694 -0.2456664087
0.3237192617 0.2199837596 -0.2959838705
0.5580000281 0.1454871999 -0.2916125590
0.6351080446 0.2159350575 -0.1901481000
0.5740248427 0.1670163577 -0.2804180130
0.5287913554 0.1708111556 -0.1227513859
0.5091447575 0.1549532050 -0.3127150741
0.5688927708 0.3142120905 -0.1235801114
0.3771658005 0.2555025864 -0.0233688811
0.6309919085 0.1669329778 -0.1065669101
0.5290923834 0.1662880721 -0.3562177559
0.3926776919 0.1713266209 -0.3419148257
0.5704296853 0.3088156105 -0.1515970415
0.6454326340 0.1692316791 -0.1197102566
0.5550302934 0.2055378448 -0.3409290255
0.6210939997 0.2845360629 -0.1749908532
0.5845332584 0.2710700570 -0.2270942979
0.6540368324 0.2201217309 -0.1362039345
0.4968754298 0.1789135893 -0.1192052522
0.5854139405 0.3005887686 -0.1533051224
0.4661946565 0.1714886819 -0.1850000024
0.4087899374 0.2309019385 -0.2523650967
0.5734647305 0.1691078915 -0.2274659468
0.5119368342 0.3177618490 -0.1334653364
0.5799894458 0.1759824363 -0.2305759188
0.3947821493 0.1874303497 -0.2342178439
0.4629768683 0.1653718960 -0.2782407143
0.3779704938 0.2473802540 -0.3268357154
0.3660342429 0.3503669055 -0.0177885205
0.3252423654 0.1809870905 -0.3036304328
0.6085764827 0.2866344156 -0.1395296943
0.5694130927 0.1582888621 -0.0747123818
0.4658618157 0.2215928011 -0.1232671924
0.3632399155 0.1717944281 -0.2643712868
0.5144766203 0.1446686455 -0.2487819260
0.4975220966 0.2972467408 -0.0651762477
0.6547100081 0.2018161615 -0.1167750300
0.6309174087 0.2392399879 -0.0093844556
0.5090828371 0.1729999930 -0.1103173242
0.5681285102 0.1606927876 -0.2099765720
0.6635724841 0.2402018020 -0.1229150422
0.4885284282 0.1707639968 -0.1395971723
0.5770129772 0.2747316563 -0.2071138970
0.5689621137 0.1644968831 -0.3157675422
0.6468322538 0.2321421290 -0.0443611525
0.5645447304 0.1717614491 -0.1310964423
0.6259338377 0.2743979939 -0.1028195127
0.5528966406 0.1569238429 -0.1843813067
0.5359403940 0.2510950468 -0.2099999934
0.6396031496 0.1943225486 -0.1012806254
0.6495522925 0.1757173443 -0.1661046135
0.4654494453 0.1718545103 -0.2027809008
0.4159098604 0.2245551362 -0.2549899336
0.6449777429 0.1525245257 -0.1205550023
0.4657744790 0.1899604926 -0.0758693329
0.6520051535 0.2177543637 -0.0921240096
0.6491271241 0.1753065030 -0.0858826071
0.5003473408 0.2247174860 -0.2424688401
0.4263410027 0.2605446677 -0.3298170018
0.4192443185 0.2534415041 -0.1133821856
0.5780394314 0.1436951100 -0.0134795823
0.5620774627 0.3002026488 -0.1813476891
0.5016192298 0.2653709591 -0.3134189140
