0.5160965074 0.1519701179 -0.3099252949
0.3653035880 0.2408316562 -0.2765125627
0.4735224749 0.3041269448 -0.1591925355
0.5606459034 0.3019976988 -0.0779540121
0.4620000000 0.2312077802 -0.1950656569
0.3294900250 0.2190000000 -0.2801961792
0.5766930999 0.1654639675 -0.1136599187
0.6158097542 0.2386504096 -0.2460320559
0.4607748647 0.2920000000 -0.0509526626
0.5711213669 0.3040000000 -0.1682619295
0.5489053359 0.1610835268 -0.0687770686
0.6161941698 0.2596468985 -0.2017817028
0.5152658500 0.2515283091 -0.3331425044
0.4481724010 0.1803129374 -0.0213215582
0.4382492919 0.2586977045 -0.1264589234
0.4973988469 0.2132249518 -0.1614673689
0.4654297946 0.3063188768 -0.1429341147
0.5059489780 0.1653343457 -0.2150425183
0.5197240000 0.2826125039 -0.0413232061
0.5265384296 0.2648891808 -0.2465102681
0.3538356212 0.3332059276 -0.0179840891
0.4623615325 0.1764106984 -0.0421345727
0.5245058309 0.2841495517 -0.0237148335
0.4547673174 0.3345044185 -0.0430433329
0.6498061691 0.2465263222 -0.0687889939
0.3948403700 0.1722666892 -0.3357111873
0.3733933885 0.2567234952 -0.0154880790
0.4187835638 0.3042739742 -0.1088078400
0.4734899302 0.1712324877 -0.3245441568
0.5733995508 0.1659992513 -0.2067546442
0.4753999578 0.3255543339 -0.0200000000
0.4831010035 0.1697938213 -0.3346583457
0.5830983077 0.2183751618 -0.3087131075
0.5301756777 0.1591966441 -0.0283224618
0.5918116813 0.1559662946 -0.1743338648
0.6361728002 0.2294044822 -0.1882899344
0.5076550049 0.1520481107 -0.2792176966
0.5526839320 0.1784374448 -0.1530465983
0.5309586954 0.2817385448 -0.0553407783
0.5150325767 0.1567377038 -0.1937067762
0.6326460023 0.1787746569 -0.1304763787
0.4641896299 0.1660000000 -0.2994388473
0.6288528878 0.1806403670 -0.1425629558
0.3766151877 0.2382405332 -0.0400601212
0.3205142073 0.1851778068 -0.3057882717
0.4830987611 0.3015220895 -0.0091815341
0.3286976602 0.2174184058 -0.2688372330
0.6310675133 0.1655809487 -0.1646398747
0.5958385044 0.2121105819 -0.2751345797
0.5988908909 0.2144835356 -0.2689687679
0.5650000000 0.1535417177 -0.2167306525
0.6319785342 0.2476845237 -0.1823053925
0.3976592457 0.2805444186 -0.0923660515
0.3578347415 0.1841639469 -0.2600000000
0.4710000000 0.2083696856 -0.1312746324
0.4213309547 0.2650853844 -0.3251263531
0.4330143834 0.3091275479 -0.0664422214
0.4114477929 0.2962462030 -0.1455100068
0.5822664861 0.3140264561 -0.1275512911
0.4320751116 0.1781708524 -0.2905943303
0.5061645309 0.2750151031 -0.2957856341
0.5854975562 0.1984142679 -0.3182557119
0.6188409851 0.2656360650 -0.1600000000
0.4446015844 0.2111884690 -0.1026693073
0.6044877456 0.2690786855 -0.0437057580
0.6480684569 0.2322346197 -0.0405600098
0.4232229296 0.2234204406 -0.2348026469
0.3183113077 0.2084635045 -0.2763907423
0.5043398311 0.2245568746 -0.2377669481
0.6323691141 0.1668957941 -0.0272841751
0.3912401879 0.1894438739 -0.2600000000
0.5997701466 0.2068698234 -0.2615862458
0.3534199822 0.3301035458 -0.0603499852
0.4677944028 0.2001022371 -0.1161222914
0.6289492913 0.1489745693 -0.0234178478
0.4049294977 0.2715139044 -0.3594671159
0.3890652416 0.2175732460 -0.0187546365
0.5944298930 0.2752149130 -0.0643114585
0.4318418909 0.1906641557 -0.0491015712
0.6402172547 0.2541470561 -0.1537189194
0.4522057400 0.2371398665 -0.1238182903
0.4763106716 0.2912367944 -0.0549143445
0.5062182127 0.1557094919 -0.1991131352
0.5583363665 0.1754869717 -0.1641449528
0.5587998373 0.1567850371 -0.0686821063
0.6235425692 0.2754365529 -0.1008148883
0.6497719453 0.1884064892 -0.1001834099
0.5115866512 0.2819919997 -0.0035271345
0.5006111848 0.1647256973 -0.2194906793
0.5006451587 0.2078686986 -0.1650379263
0.5744940294 0.1676587058 -0.2432847769
0.4962650240 0.2938111678 -0.0041201536
0.6540698714 0.2293390139 -0.1792003161
0.4345930823 0.1860884186 -0.0554821945
0.6104700699 0.2637128073 -0.2057179818
0.6570547167 0.2033477784 -0.0349088055
0.5733142448 0.2765296462 -0.0478283184
0.3830000000 0.2342330251 -0.0286123453
0.6255091882 0.1705408925 -0.1493897127
0.3712233756 0.2497638485 -0.2350000000
0.4123752367 0.3370150224 -0.0484229686
0.3874076913 0.2634507390 -0.3549583156
0.4606317632 0.2957067750 -0.1546249412
0.3957553607 0.2809846910 -0.1406294673
0.4656006064 0.2146771604 -0.1198184574
0.5217579110 0.2530316441 -0.2267376288
0.3562473857 0.3348136333 -0.0405811666
0.3629728687 0.3432579414 -0.0075398795
0.6084984659 0.2167753576 -0.2053806881
0.5882119779 0.1895063360 -0.2776955872
0.5577111428 0.2728264845 -0.2305767085
0.4050580997 0.2387824584 -0.0729081523
0.4470232112 0.1800947411 -0.0290312741
0.4965840621 0.1653827904 -0.0172086562
0.6147989042 0.1645960533 -0.0517681535
0.3489999864 0.2897816851 -0.0510285905
0.4876794202 0.1712628036 -0.2350481469
0.5779301103 0.1725501839 -0.2532483400
0.3975867795 0.2772959840 -0.3554400100
0.4024488125 0.2816715446 -0.0862568907
0.3503296254 0.3232223468 -0.0066759364
0.5518354280 0.1750944812 -0.1640471795
0.6351235811 0.1770994674 -0.0444729391
0.5209786794 0.1563550992 -0.1950046968
0.4315548058 0.2468217399 -0.1188870145
0.5972010763 0.2373636254 -0.2677135169
0.6368117838 0.1987259949 -0.1436775198
0.4298785381 0.3096980748 -0.0563780411
0.4796322267 0.2594535241 -0.3097361737
0.6432958092 0.1830577135 -0.0850565361
0.5113095303 0.2347138059 -0.2300917092
0.6057922085 0.2677868228 -0.0488486696
0.3555681724 0.2318712943 -0.3272838990
0.5147504071 0.2052285296 -0.2170826549
0.6149918834 0.2536934841 -0.2253173381
0.3586445297 0.3279993818 -0.0348126833
0.4068785036 0.2017270190 -0.2600000000
0.5332988331 0.1811063605 -0.1456879235
0.3595717993 0.3057575032 -0.0178121787
0.5761645562 0.1503552557 -0.0595467209
0.6209560806 0.1618354973 -0.1563238913
0.5915737585 0.2334691787 -0.2720128197
0.6081579627 0.1518894662 -0.1780495373
0.6322303838 0.1792687141 -0.1534480804
0.4364848082 0.2417633314 -0.1449546865
0.4914823630 0.1674982424 -0.3525029294
0.4346739437 0.3113848889 -0.1071406331
0.5092789149 0.3086950847 -0.1690233492
0.6400538559 0.2360986179 -0.1488609902
0.6078944129 0.2178944129 -0.2533830946
0.4332336195 0.2374826002 -0.2560116500
0.3516209528 0.3423057040 -0.0281047641
0.6169592470 0.2737914330 -0.0771258286
0.4379934932 0.2713574795 -0.3403574795
0.6392428075 0.2433984995 -0.0419509706
0.5222995079 0.2657091848 -0.3096382927
0.4840218628 0.1576520914 -0.2528884126
0.6292766271 0.2403139068 -0.0107472627
0.4742898586 0.1871261747 -0.2050000000
0.5046111524 0.1569401014 -0.3051497465
0.4310145916 0.1899936775 -0.0641765640
0.6446106049 0.1930143396 -0.1319068966
0.5277262037 0.1702471517 -0.1185499563
0.6078708093 0.1550433790 -0.0994500628
0.4140543650 0.2077091548 -0.2486582686
0.3523481464 0.2097368700 -0.2513156501
0.5845141578 0.2898102438 -0.0683419128
0.5134591561 0.1480000000 -0.2115594465
0.4728180144 0.1731819856 -0.3495236963
0.4581460840 0.3130115738 -0.1149421310
0.6454724268 0.2249252023 -0.0162362134
0.5725814929 0.3131775983 -0.1391120083
0.5263069389 0.2383249466 -0.3515883206
0.5802865056 0.2838862552 -0.1988921810
0.5364137357 0.1395862643 -0.2586432042
0.4966219832 0.2722828565 -0.2798834654
0.3637883974 0.1897967740 -0.2455164416
0.3433370504 0.1799072321 -0.3154071374
0.3326048480 0.1983528987 -0.2328658039
0.6272809582 0.2642451855 -0.1100000000
0.6205833235 0.2343055391 -0.2226365354
0.6546187794 0.2072057891 -0.1049908678
0.3939611897 0.2458615252 -0.2528461870
0.5029178010 0.1726790826 -0.0856685602
0.4489898900 0.1697986557 -0.2939932785
0.6068035744 0.2168035744 -0.2590245629
0.4282000297 0.2438702709 -0.1029629315
0.5580701875 0.2780000000 -0.0360108062
0.3606228313 0.3384077768 -0.0148649048
0.6210656501 0.1529584843 -0.0417007758
0.4668447065 0.3134070712 -0.1129646438
0.3799605924 0.2428137826 -0.0647948864
0.4620834389 0.1657754311 -0.2902150352
0.6083982288 0.2652538551 -0.0547370251
0.4899789378 0.2620000000 -0.3254599923
0.5658366242 0.1656504365 -0.1045006236
0.6517617001 0.2132808825 -0.0202660394
0.5580000000 0.1432859321 -0.2323222913
0.4718181230 0.3186822073 -0.0054546924
0.4077761448 0.1789493381 -0.3600000000
0.4955766038 0.1706013090 -0.0422167714
0.4665034252 0.2200092250 -0.1232829139
0.5525803520 0.1370827074 -0.3140327467
0.6354672059 0.1614452360 -0.0618614698
0.4260680111 0.1939312361 -0.0267812731
0.6528245868 0.2135243663 -0.0269899392
0.4297442201 0.2441978457 -0.2475309472
0.4276893520 0.1733931944 -0.3306409356
0.6263907053 0.2528323597 -0.0311339626
0.6379639808 0.1772007753 -0.1645042247
0.3914954068 0.1886546021 -0.2463148605
0.4147709386 0.1771781284 -0.2879453210
0.6584634088 0.2356239692 -0.1753684440
0.4291160366 0.3510193957 -0.0649419817
0.6338489550 0.1642107369 -0.0332221330
0.5988826904 0.2416282051 -0.2643134086
0.6320451417 0.2310561599 -0.0109114433
0.5025825551 0.1602355598 -0.3318188512
0.4083339567 0.1743794188 -0.2869933783
0.4227502265 0.1972359455 -0.0458724788
0.4489372490 0.2722954309 -0.1564076414
0.4208087632 0.1904585825 -0.2455836344
0.3579500195 0.2170931319 -0.2500983217
0.5611747733 0.1477621600 -0.2400878891
0.3441550127 0.3150803816 -0.0436496931
0.4872313124 0.1575779214 -0.2150000000
0.4703802443 0.1854344482 -0.2477636760
0.5520992602 0.2780000000 -0.0363046575
0.5787864607 0.2214566216 -0.2948740689
0.4041273691 0.2324310585 -0.0711487415
0.6270000000 0.2473874094 -0.2099916266
0.6397308501 0.2586659960 -0.1082193797
0.3620599823 0.2904396798 -0.0336750221
0.4440894135 0.3256310690 -0.0581169690
0.6609355642 0.1925199083 -0.0840093124
0.6227291313 0.1578850117 -0.1850000000
0.5414623720 0.2587968870 -0.2992621366
0.6152284263 0.1692286386 -0.1305429351
0.5755299235 0.3069028838 -0.0962887197
0.4724169287 0.1764370550 -0.2543051188
0.3738129212 0.2437670499 -0.0135161515
0.6461547351 0.2377483561 -0.0497870017
0.4149317253 0.2102175011 -0.2551919660
0.5633702021 0.2728594935 -0.2188515222
0.5052802105 0.1550000000 -0.2980711344
0.6501554243 0.1807337620 -0.0829345517
0.6373537629 0.1680855299 -0.0298792062
0.5443250286 0.1680966610 -0.1134058681
0.5174286225 0.2824160729 -0.0067324893
0.4197778509 0.1730000000 -0.3112618734
0.4797077011 0.2783130379 -0.1804364262
0.5779916021 0.1700819183 -0.1638799736
0.5722709881 0.2343039432 -0.3015337763
0.3485915582 0.3103744316 -0.0414435087
0.6471994618 0.1788051746 -0.1646830442
0.6509599405 0.1867358741 -0.1119602248
0.4751820760 0.3133637549 -0.0105708310
0.4319829869 0.1908008802 -0.0266035688
0.5222533486 0.2780000000 -0.2749033380
0.4808113793 0.3075051723 -0.1315310351
0.5729109467 0.1745411243 -0.3287148689
0.4310626870 0.2719004242 -0.3401431961
0.5878197807 0.2641353442 -0.2374448047
0.5044974168 0.2309982779 -0.2421469508
0.6526404502 0.2407189818 -0.1760071818
0.5356452660 0.1794714407 -0.1671995061
0.5203078371 0.2515667411 -0.3304332589
0.5650000000 0.1557380763 -0.2256573233
0.4080000000 0.2401859498 -0.2498227405
0.3965862699 0.1920000000 -0.2442580293
0.4827163488 0.1866737307 -0.1159270421
0.3243978615 0.2058130734 -0.3074368912
0.5826779062 0.2031939367 -0.2944416336
0.5654700140 0.1564700140 -0.2537519675
0.6453949601 0.2661625650 -0.1199524237
0.5800000000 0.2240238691 -0.3058154801
0.4890057541 0.1690000000 -0.3449291449
0.3602884563 0.1745664975 -0.3360650343
0.3847182386 0.2439680149 -0.2600000000
0.6197794695 0.1706907945 -0.1486727677
0.6473058415 0.2181384974 -0.0603823019
0.4188775087 0.1962504874 -0.2460512474
0.6270365756 0.1708167668 -0.0486745317
0.6594229063 0.2490836928 -0.1320659893
0.3670899132 0.2581135946 -0.0051123915
0.4827631429 0.1766655962 -0.0823812319
0.5783640362 0.1746374299 -0.2873422773
0.4859730673 0.1645138677 -0.3232712030
0.3801774130 0.1720939970 -0.3007625571
0.4071974369 0.2197470639 -0.2600000000
0.4479461049 0.2668046879 -0.1744252229
0.4364740695 0.2157358148 -0.1052930318
0.4921307303 0.2693465991 -0.2827891313
0.3743822194 0.2622023951 -0.0251658303
0.5102507375 0.1590000000 -0.3491382093
0.3882574304 0.1751963508 -0.2614325261
0.3944389972 0.1741449251 -0.2627536249
0.4991309555 0.2929448045 -0.0092230467
0.5207735283 0.2444153139 -0.3488037675
0.4318034055 0.2284013856 -0.1027457431
0.5908071618 0.2718016671 -0.2079958322
0.5578621459 0.2896315851 -0.0650965632
0.5228402806 0.2462515584 -0.3387422078
0.5792037910 0.3020431048 -0.1687114353
0.5327178279 0.1690000000 -0.0970631533
0.4847229264 0.3150000000 -0.1474726417
0.4139939128 0.3375547206 -0.0418389233
0.5751433694 0.2275218525 -0.3136920687
0.6539848374 0.2485544290 -0.1445161201
0.3963043773 0.2574189777 -0.3301432343
0.5970721967 0.2646993806 -0.2187140378
0.6468018301 0.2451803138 -0.0579166422
0.3706134570 0.2527329176 -0.0057498733
0.4914207476 0.1639631395 -0.1863796693
0.6556483538 0.2310789564 -0.1307855154
0.5358059358 0.1570000000 -0.0220030342
0.3481967549 0.1888713044 -0.3331178786
0.5538206646 0.1748274320 -0.1375625763
0.6375536232 0.2071038092 -0.1409227053
0.5894510220 0.2968178489 -0.1682793397
0.5241042503 0.3191454222 -0.1347941406
0.6524226559 0.2501444751 -0.1197375709
0.5631374493 0.2994759043 -0.1828966233
0.6192955326 0.2361556749 -0.2356815579
0.5897426233 0.2234716102 -0.2798314894
0.6324446431 0.2652036866 -0.1141046534
0.5887347362 0.1707587697 -0.1574723867
0.4548509762 0.2808719002 -0.1570345007
0.5310708546 0.1618151059 -0.3459610522
0.6416945810 0.2161259489 -0.0100000000
0.5932872193 0.1954786988 -0.2159658669
0.5643012687 0.3110659344 -0.0853126437
0.3309607908 0.2142365792 -0.3149346514
0.5085082385 0.1714581895 -0.1080510984
0.6391429690 0.1618734585 -0.0928693216
0.5453310082 0.2690000000 -0.2341224744
0.4998082142 0.1699352859 -0.0470099804
0.6377361176 0.2398079803 -0.0373853472
0.5793786425 0.1453954093 -0.0202872711
0.4303274596 0.3179456771 -0.0940455436
0.5553548797 0.1688887587 -0.1002856022
0.4806228499 0.1714097004 -0.0379514981
0.3475012934 0.2749359228 -0.0597743770
0.5948569599 0.2699419178 -0.0618795961
0.6398158907 0.2673900741 -0.1193988565
0.5416959070 0.1447380846 -0.3200000000
0.4227424483 0.2882290994 -0.1490620593
0.3831485903 0.2270466354 -0.0140646562
0.5696799720 0.1598670111 -0.0897953412
0.4981592848 0.1669652051 -0.0238235186
0.6150902280 0.1720881386 -0.0592622580
0.5399351790 0.1640349821 -0.1799300358
0.4192300912 0.2462537421 -0.0849348189
0.6005195214 0.1694804786 -0.1377751883
0.5262904416 0.1697519286 -0.1049470373
0.6497696650 0.2296406179 -0.1573033498
0.5267880115 0.2676657152 -0.3063937351
0.5927403551 0.1960168525 -0.2768930190
0.6226093428 0.1647699722 -0.1461844823
0.6434120973 0.1651638297 -0.0751193891
0.3862288635 0.2518713883 -0.3263168300
0.3475282425 0.2240726808 -0.3322778083
0.5399390547 0.2669390547 -0.2327551665
0.3292313358 0.2099480797 -0.3120522263
0.5299493770 0.2453761862 -0.3290642839
0.5774514223 0.2831627390 -0.0632557904
0.4183712324 0.1923691382 -0.2521906396
0.4235435909 0.3090245710 -0.0959754290
0.4512385870 0.1956046442 -0.1949296566
0.3320812581 0.2190584452 -0.3099410054
0.5817146440 0.2773190221 -0.0389326677
0.3931364472 0.2693778971 -0.3536767478
0.4950324117 0.2953955798 -0.0627504536
0.4921258162 0.1569132393 -0.3147830982
0.3791347776 0.1706326746 -0.2794154765
0.5610787979 0.1483090984 -0.2599962381
0.5914527948 0.2709418995 -0.0474202808
0.6538980112 0.1952934589 -0.0289053763
0.3332333848 0.1929620651 -0.3137223080
0.4792697158 0.1782014513 -0.2313220822
0.6337519318 0.2409464766 -0.0322237739
0.4733922400 0.1816608597 -0.1086182220
0.5457475896 0.1365711768 -0.2278558838
0.6094445670 0.2220834252 -0.2368004689
0.5169261450 0.3145475567 -0.1288846667
0.4787257671 0.2892405362 -0.0500484243
0.5175102349 0.2290492854 -0.2223755178
0.6363449460 0.1898877395 -0.1615505398
0.4970566014 0.1833799371 -0.2225332608
0.3236215889 0.2156141800 -0.2874814777
0.5192782781 0.1666751309 -0.0661472298
0.6240146190 0.1557726383 -0.1728725726
0.6556018237 0.1841641659 -0.0837801583
0.6524579945 0.1878424030 -0.0800375696
0.4240045310 0.2300849818 -0.0800745941
0.4396017212 0.2353414421 -0.1443467614
0.4301669680 0.2144754486 -0.0807743697
0.4697596576 0.2589984496 -0.3199961239
0.4929188817 0.1965403651 -0.1706641122
0.5349015547 0.2376712818 -0.3319616646
0.5685232736 0.2344701431 -0.3146212332
0.5607159764 0.2775178716 -0.0450766440
0.6494088041 0.2283055995 -0.0457106438
0.4148667029 0.1981574495 -0.2423173324
0.4484930031 0.2718423873 -0.1658420432
0.6282432145 0.1917026652 -0.1498886961
0.5961776119 0.1594180247 -0.1003875702
0.4634305318 0.2578062865 -0.2974223699
0.5519046170 0.1690000000 -0.1106163996
0.5447618052 0.2782805101 -0.0313663618
0.6400020329 0.1582984026 -0.0773990757
0.3583247837 0.3112998751 -0.0690752451
0.4841429700 0.2890604276 -0.0297742436
0.5758781625 0.1660000000 -0.1199024430
0.4758705553 0.2981235221 -0.0288206431
0.5886461714 0.1671707733 -0.1628104797
0.5529351599 0.3017070152 -0.0755773350
0.5130814884 0.2846095494 -0.0479276686
0.4481457601 0.2118358497 -0.1085762668
0.5904011229 0.2728024921 -0.0292221830
0.4575413122 0.2120992106 -0.1780992106
0.4822319306 0.1700411540 -0.0591740780
0.5902982954 0.1909474431 -0.2570171302
0.4010860611 0.2287312855 -0.0680882345
0.3981219117 0.2585268121 -0.3600000000
0.4381573971 0.2967929185 -0.1418664753
0.5587672176 0.1938700590 -0.3320591537
0.3826834643 0.2209076899 -0.0556166187
0.4327948286 0.2592683106 -0.2745528157
0.5792282329 0.3104955609 -0.1541592682
0.4172555747 0.1738022491 -0.3399284964
0.4674004551 0.3036928407 -0.0646993360
0.3806199572 0.2333422372 -0.0400885319
0.6014311617 0.1644453398 -0.1262200580
0.4468752186 0.2910617018 -0.1600000000
0.6669107056 0.2356791079 -0.1256108855
0.6219894513 0.1609626730 -0.1625801315
0.4941244054 0.3160286973 -0.1467144955
0.5833997994 0.2710940426 -0.0153879850
0.6250619749 0.1639123897 -0.1094297455
0.4766205439 0.2600223752 -0.3039894894
0.4030405549 0.2365095142 -0.2375475709
0.4756419102 0.1942277440 -0.2455693599
0.4075337320 0.2443610693 -0.2385659013
0.4690000000 0.1919033983 -0.2501896267
0.4485098401 0.2132981541 -0.1767394537
0.4976347451 0.1756527302 -0.1144212170
0.5842335751 0.1858378824 -0.2981743254
0.4102556483 0.2617667343 -0.3341481899
0.4880657354 0.2940716195 -0.0616280665
0.5559368204 0.3180000000 -0.1467478254
0.5202892054 0.1489630291 -0.2824609361
0.4524628547 0.3377044934 -0.0472861016
0.5105506869 0.2230246739 -0.2262386033
0.4966852339 0.3182218348 -0.1512194992
0.5132512271 0.1552255732 -0.3184368243
0.6163010769 0.2779369976 -0.0826766810
0.5585942219 0.1610043340 -0.0865586145
0.5383351047 0.1405364584 -0.2485894539
0.3954921663 0.2393234014 -0.2577934073
0.3189623198 0.1859046381 -0.2908407992
0.5956680762 0.2687272023 -0.2113639885
0.4748082357 0.2956854201 -0.0344345296
0.5160756402 0.1439789236 -0.2249844862
0.4130214376 0.1734871300 -0.3268239253
0.5780900541 0.1690000000 -0.1258672377
0.5315682860 0.1709188163 -0.1318258374
0.6258007671 0.1933671857 -0.1977858315
0.4850048422 0.2621499603 -0.3096250993
0.5197584546 0.2979860305 -0.1868350808
0.5527557172 0.3093580420 -0.0826086150
0.4596613239 0.2601297553 -0.1950000000
0.6330756461 0.2390046611 -0.1879953389
0.3163085118 0.1831779858 -0.3004548576
0.4525037278 0.1777882387 -0.3395626274
0.4591935216 0.3554771250 -0.0168496408
0.6488558283 0.2208003060 -0.0179279142
0.4633313937 0.3114879862 -0.1187800345
0.5851418877 0.2756972096 -0.0341954866
0.6403608209 0.2120737038 -0.1495259414
0.4387679355 0.2096188387 -0.1075854636
0.5913188153 0.2721165501 -0.0399144624
0.3707953918 0.1765659184 -0.2683038644
0.5885056483 0.2891148089 -0.1733770629
0.6048024441 0.2940382847 -0.1550000000
0.5596442415 0.1476442415 -0.3141585899
0.4962991400 0.1494065850 -0.2291351750
0.6333674497 0.1963021340 -0.1690868452
0.4855135810 0.1660000000 -0.1875616011
0.6204645604 0.1434584523 -0.0257611633
0.5680101657 0.1693991911 -0.1229939332
0.5388756535 0.1410919077 -0.2704980057
0.5477742178 0.2573485066 -0.2973862005
0.4260046747 0.3120205952 -0.0698432133
0.6553528001 0.2190379991 -0.0308837953
0.4953352445 0.1540720470 -0.2445060762
0.5354910048 0.1422499274 -0.2977570006
0.6237348634 0.1516993130 -0.1884185793
0.5744128708 0.3024797095 -0.1723328025
0.5367582064 0.2821124571 -0.0220504739
0.5005985467 0.3183448155 -0.1453287807
0.4497017181 0.2988261390 -0.1241699368
0.5609508849 0.1488484961 -0.2055119441
0.6513414882 0.2184830856 -0.0654268602
0.5340733114 0.1429306906 -0.2769006585
0.4763710230 0.2590000000 -0.3165059869
0.6241982968 0.2454230069 -0.0127758628
0.5129898516 0.1918499326 -0.2107890419
0.5611311473 0.1902008245 -0.3266960985
0.4487134774 0.2440398706 -0.1249157286
0.5647623502 0.1620000000 -0.0921754944
0.3592002718 0.2787366621 -0.0613044744
0.6377431688 0.1885898720 -0.1550000000
0.6180485490 0.2801548977 -0.1428383387
0.4909333385 0.1671624318 -0.3323509706
0.5659464222 0.3116408387 -0.0905270549
0.5659460354 0.1554304127 -0.3184232744
0.3810082752 0.2306146302 -0.0083143761
0.6459437309 0.2473823642 -0.1147289872
0.5319987310 0.1617815789 -0.0394539472
0.3330397498 0.2076401668 -0.3159429590
0.4422934637 0.1731921347 -0.3240847493
0.5337640698 0.1610254367 -0.0620254367
0.5893332760 0.3089352186 -0.1258056625
0.3461307412 0.2831307016 -0.0590194408
0.5323967313 0.2690000000 -0.2861478891
0.4417323265 0.3405371518 -0.0595560776
0.5055190646 0.2391619835 -0.2537760895
0.6080000000 0.2491541313 -0.2495936420
0.4713174043 0.1953643093 -0.1143560316
0.4846547416 0.2708464522 -0.2717840224
0.5221723577 0.1710000000 -0.1250326518
0.5704563499 0.1658905717 -0.1147264293
0.5933247794 0.3031139259 -0.1404170259
0.4409011076 0.1937291181 -0.0763389611
0.5201415028 0.2757979127 -0.2852922528
0.5679502281 0.2721860938 -0.2401704024
0.5007604126 0.2735999386 -0.2983869953
0.5576552801 0.1689294389 -0.1147647964
0.6051262443 0.1643164641 -0.1619952978
0.5868336007 0.1863327987 -0.2055439071
0.5924578238 0.1941867357 -0.2669018225
0.5204124654 0.2851790951 -0.0573685781
0.5402125521 0.1570692215 -0.3287785184
0.5446765684 0.1753963677 -0.3520771447
0.6297439442 0.1737663630 -0.0155636874
0.6545454293 0.2546338753 -0.1366178598
0.5711767810 0.1633853424 -0.1012647748
0.6123465374 0.1497191483 -0.0357891294
0.4996575383 0.2620000000 -0.3253619429
0.5031069025 0.1558569089 -0.3133621187
0.6462657555 0.1619334143 -0.1147391418
0.5906924139 0.1947171552 -0.2829154092
0.6509662048 0.2613873770 -0.1213573193
0.3778955026 0.2227761603 -0.0502396408
0.6277047378 0.1654047072 -0.0170811213
0.5004668413 0.3136111202 -0.1617511819
0.3934780652 0.2303608517 -0.0562156122
0.5891938924 0.1874515913 -0.2347604035
0.5019939101 0.1480000000 -0.2292943077
0.4756799061 0.1720236726 -0.0249614992
0.5162170688 0.1866354830 -0.1681031608
0.3253477259 0.1954803291 -0.3071876162
0.5004981412 0.3016379823 -0.1931398411
0.6181016293 0.2301693821 -0.2056346119
0.3630066307 0.1839934417 -0.2538253944
0.5113583568 0.1466416432 -0.2594307419
0.5957304034 0.2798849002 -0.0670521901
0.4015527489 0.1719823353 -0.3292011211
0.3826426990 0.2561927463 -0.2722497635
0.5562993045 0.1882889243 -0.3421258693
0.5210180536 0.1509261005 -0.3073152512
0.5119377176 0.3134402943 -0.1260695881
0.5925335792 0.1975329235 -0.3042226319
0.5660993307 0.2899006693 -0.1998193635
0.6188366502 0.1609846553 -0.0408415784
0.4956023806 0.2518104607 -0.2047448637
0.6258438854 0.2420731423 -0.2114337461
0.4671301649 0.1789288544 -0.0837045264
0.3519688196 0.3115512774 -0.0361429590
0.4783719304 0.1784346728 -0.1105387263
0.3862909866 0.2169085069 -0.0121578001
0.5614067535 0.1745338969 -0.1595296748
0.5475521656 0.1802806368 -0.1516719755
0.5490278612 0.3199861396 -0.1400000000
0.5162517938 0.1490563620 -0.2779599455
0.5009996944 0.2922398577 -0.0601997482
0.3735559856 0.1792597619 -0.3501093263
0.4779140653 0.1767432894 -0.1013555197
0.4370200605 0.3442058868 -0.0609899698
0.4933497239 0.2664694123 -0.3053320933
0.5794067618 0.1750112697 -0.2280294282
0.4657504472 0.1714161131 -0.3222736838
0.6524474569 0.2156376630 -0.1781036891
0.3648010286 0.2917670288 -0.0285707275
0.6218098073 0.1631986661 -0.1805757369
0.4900440423 0.2970000000 -0.0090647445
0.4774432552 0.1849641167 -0.1135877147
0.6217539564 0.1557120249 -0.0864334985
0.4918108052 0.1684824530 -0.0201139746
0.6558664609 0.2193511674 -0.0710830761
0.6604162121 0.2357545247 -0.1286316116
0.6167776685 0.2284277707 -0.2217494888
0.5289149177 0.1784282841 -0.1697548558
0.3995087739 0.1713010663 -0.2647849527
0.5225110870 0.2603077951 -0.2362412733
0.6596008022 0.1995265514 -0.0298850794
0.4343474580 0.2213834945 -0.0923810611
0.3952842869 0.1850047970 -0.3581126366
0.4272693240 0.2992152813 -0.1199084463
0.6187545320 0.1675492988 -0.0491834114
0.5474789687 0.2590401895 -0.2862960750
0.5667016307 0.1767328677 -0.1462976724
0.6620320669 0.2460897800 -0.1277012246
0.5861883734 0.1876232531 -0.2235621563
0.3625486751 0.2998045935 -0.0274754148
0.3986200426 0.1726283548 -0.3199039158
0.4050428387 0.2794413355 -0.3559870021
0.5282536442 0.1691916016 -0.1126610697
0.5435059355 0.2844071131 -0.0591530188
0.4999601324 0.2561172346 -0.2655588061
0.4386749126 0.2127153422 -0.0918166971
0.4738712651 0.2619057860 -0.2956389672
0.4887660489 0.2686675660 -0.2997537928
0.3850232537 0.2572562999 -0.3474324760
0.6243031643 0.2534200053 -0.1892797601
0.4206094136 0.2815933054 -0.3585959532
0.6314752000 0.2569226891 -0.0955997528
0.5088666280 0.2363153174 -0.2352222867
0.4961062679 0.1729941992 -0.0829289051
0.5138032061 0.2900827377 -0.0097931557
0.4356247214 0.2493819269 -0.2602760674
0.3493058507 0.1943902908 -0.3312958782
0.5356220726 0.1542334897 -0.3318603834
0.3528397406 0.1940018056 -0.2424688744
0.5083124586 0.1474755654 -0.2313133734
0.6400064224 0.2564694908 -0.1650000000
0.5491302127 0.3121305501 -0.1653984474
0.4413326847 0.3240602963 -0.0465772857
0.5797923681 0.1764216074 -0.2648764617
0.4672003619 0.1651700447 -0.3058263595
0.5928018789 0.3049949994 -0.1221851188
0.6134414188 0.2903426348 -0.1235385125
0.4234901833 0.2441161492 -0.0923527493
0.5862642140 0.1853964292 -0.2390802676
0.3915212685 0.2093337917 -0.0504285838
0.3548512910 0.1921769008 -0.3450000000
0.5653330263 0.1563330263 -0.2477543822
0.6404596659 0.2181937365 -0.1818145244
0.5528938590 0.2703206033 -0.2155606630
0.4978287264 0.1567037099 -0.2911320948
0.4756776662 0.1755831553 -0.0779157766
0.5825549757 0.1810641927 -0.2274539146
0.4608948466 0.2590000000 -0.3245441761
0.4574402978 0.1722818543 -0.3582046357
0.5765138375 0.2288127786 -0.2942989056
0.4286343007 0.2504161651 -0.1131571419
0.6628351060 0.2216885807 -0.1750484982
0.4967070599 0.2188047066 -0.2512633057
0.4916858507 0.1963078458 -0.2425871394
0.3652314797 0.2580898222 -0.0402498301
0.5283485681 0.1910261214 -0.3592507955
0.3759918980 0.2204673023 -0.0587467483
0.3483383800 0.2216860901 -0.3377577041
0.6431149920 0.2196218503 -0.1765669837
0.4238812512 0.2260746787 -0.0892241358
0.3503601304 0.1995608817 -0.3338019042
0.4622078312 0.3054832864 -0.1282510243
0.5938724026 0.1964540043 -0.2589540507
0.4752532722 0.1708843452 -0.0445563111
0.5737953372 0.2314961474 -0.3095141925
0.3339450534 0.2183408681 -0.3191534242
0.4612094456 0.3442799833 -0.0209411476
0.4210653008 0.2576812786 -0.2854588976
0.4884792164 0.2881348952 -0.0332797870
0.6508198007 0.2321634915 -0.0596790428
0.6072704023 0.2618865358 -0.1859098165
0.4991000508 0.2700475422 -0.3045361870
0.5648116455 0.1527488607 -0.2594253713
0.5136055669 0.1724205548 -0.1127124013
0.4985251604 0.1921468155 -0.1732380996
0.6252363804 0.2679061155 -0.0951457217
0.3503937553 0.2095948551 -0.3380596569
0.3924214604 0.2462711024 -0.2316280834
0.3579241032 0.2705326802 -0.0476207192
0.4666974517 0.2600345751 -0.2928658973
0.4820345497 0.2870512512 -0.0395637065
0.6437184882 0.2428118491 -0.1780309758
0.3934943786 0.2592158673 -0.2763925565
0.4469357386 0.3362074396 -0.0572394938
0.3637927596 0.2922426507 -0.0178028184
0.5225297116 0.1834932243 -0.1696476969
0.5958324361 0.2709072130 -0.1871005848
0.6238823257 0.1661318661 -0.0450660765
0.4799151041 0.3022072006 -0.1679879990
0.6037047032 0.1593329091 -0.1686803745
0.5615358675 0.1987852810 -0.3260265583
0.5029863307 0.2437514262 -0.2586060324
0.4582102683 0.3287237115 -0.0361664610
0.5982877953 0.2206313139 -0.2665894073
0.5060414175 0.1661012483 -0.0386038985
0.4693115683 0.2731524137 -0.1954104135
0.4386100074 0.2754704196 -0.1575732303
0.5354367011 0.1703674399 -0.1265814003
0.5053380392 0.2490853548 -0.2584889374
0.4197737962 0.2230950861 -0.2450000000
0.6033489727 0.1598716845 -0.1046357431
0.5259770187 0.1581687526 -0.3460238372
0.6542939359 0.2465731806 -0.1360464088
0.6304865047 0.2415361201 -0.0262521016
0.3615359644 0.2812296250 -0.0078998565
0.5850581302 0.1659418698 -0.1208421685
0.5130374969 0.2511030800 -0.3386211500
0.4921740574 0.1515423673 -0.2150000000
0.5725616994 0.1659659744 -0.2903309289
0.4677426137 0.3093464518 -0.1214283351
0.5082404320 0.1625132410 -0.1887168974
0.4258876295 0.2413030243 -0.2391250079
0.5971288753 0.2779851044 -0.1815617572
0.5385292336 0.1662393800 -0.0959229897
0.5120626338 0.2412733082 -0.2338816715
0.4048688962 0.2272771679 -0.2400000000
0.3940190968 0.1738519880 -0.2939295507
0.5972076414 0.3013608632 -0.1222340344
0.5122621132 0.2872609463 -0.0048298725
0.5497257300 0.1364665994 -0.2388335014
0.5276791617 0.1895029328 -0.1490194491
0.6266962678 0.1733279366 -0.1402393152
0.3917763196 0.1937229412 -0.2370716640
0.5048260312 0.1485101917 -0.2062754792
0.6579867678 0.2186613422 -0.1764744801
0.3829643956 0.2157373665 -0.3559821978
0.4588638605 0.1884145050 -0.0726713531
0.6113954283 0.2231808911 -0.2316195796
0.3950830218 0.2373753513 -0.2300000000
0.5146675773 0.2720565930 -0.3034501579
0.5815639807 0.2745667222 -0.2073887963
0.6499218522 0.2396519321 -0.0701378450
0.6484162928 0.2474146436 -0.1589314356
0.5180173670 0.1559826330 -0.3377593746
0.6538685517 0.2133977881 -0.0685856897
0.3649041665 0.3494025373 -0.0172672721
0.6024127738 0.1680968726 -0.1537741160
0.4114514647 0.1714601330 -0.2739612910
0.6360026046 0.2804145253 -0.1253937641
0.5320964438 0.2471487715 -0.2115862969
0.5641270645 0.1700697776 -0.1280233321
0.4448485513 0.3327388904 -0.0517586272
0.5585858212 0.2045289825 -0.3285488202
0.3553068271 0.2071391495 -0.3419223559
0.5897778257 0.1655217078 -0.1247964645
0.5692920366 0.2368782882 -0.3092699086
0.6499091374 0.1717440420 -0.0981111014
0.6522351811 0.2287899046 -0.0328673073
0.3271158853 0.2202139257 -0.2920232094
0.5580000000 0.1455329521 -0.2521311300
0.3543055845 0.3441370406 -0.0199450363
0.5374449367 0.2356299257 -0.3372427207
0.4710119835 0.2554740207 -0.3129136721
0.5250339481 0.2354445114 -0.2149717099
0.4805336654 0.2965754329 -0.0247177601
0.3924662019 0.2608015096 -0.3440826282
0.5827281766 0.3030971539 -0.0887796155
0.5053514976 0.2946405143 -0.0645021694
0.5330876177 0.1861486655 -0.1505969832
0.5136524332 0.2690029402 -0.3099936996
0.4526465690 0.3050023158 -0.1404157018
0.5853763593 0.1848402566 -0.2914849564
0.5738154046 0.3148552443 -0.1290792368
0.3919026222 0.2484711077 -0.2582434374
0.6428352313 0.1633401049 -0.0874472452
0.6278152001 0.2630480016 -0.0952609238
0.6143312811 0.1601765743 -0.0563416836
0.5151980272 0.2544089321 -0.3275910679
0.5875663106 0.3120578113 -0.1305273813
0.4104803019 0.2322618341 -0.0739991856
0.5128568569 0.2092001086 -0.2204902619
0.5992206800 0.2655961745 -0.0587834851
0.5972230104 0.2016306806 -0.2597084998
0.5844751809 0.3029377733 -0.1583893099
0.6304398120 0.1892189499 -0.1414456385
0.4955199555 0.2608730405 -0.2730544517
0.4414314038 0.2406752901 -0.1592301629
0.5583788078 0.1578419356 -0.0342949312
0.3841054760 0.1709725148 -0.2753072906
0.5764056477 0.1711847606 -0.2919477822
0.6436855123 0.2494100533 -0.1650000000
0.6220353374 0.2741107759 -0.0877315285
0.4474252888 0.2391995890 -0.1271210374
0.5551841663 0.1692790690 -0.1242457523
0.6669977594 0.2168186017 -0.1750000000
0.4737270123 0.1710197807 -0.0366616489
0.3829929823 0.1732995712 -0.3099900621
0.3556497368 0.3248814756 -0.0650000000
0.4284879240 0.2376606757 -0.2453171406
0.5668522802 0.1541477198 -0.0292395855
0.6274080263 0.1661919993 -0.0751628864
0.5737084833 0.3119891671 -0.1194776753
0.5172456914 0.3069226199 -0.1701580450
0.6304832060 0.2308783787 -0.1820973283
0.5537921858 0.2201378360 -0.3300000000
0.4726566813 0.3072334332 -0.1377641185
0.4991268314 0.1508731686 -0.2492618066
0.6081313281 0.1474294911 -0.1940491518
0.5671586955 0.1748843969 -0.1388843969
0.5870557490 0.2819651251 -0.1843826380
0.5562924685 0.1679648963 -0.1732953781
0.5957991833 0.2856797012 -0.0699553364
0.5487650928 0.1530090466 -0.1950000000
0.3812598630 0.2395677218 -0.0304372395
0.6472966752 0.2179339355 -0.1483579497
0.6158875949 0.2783883839 -0.1105421471
0.5417213068 0.2359313452 -0.3302731406
0.6171060283 0.1583679838 -0.0850144060
0.3859953306 0.2329245788 -0.3594418503
0.5832477654 0.3098257521 -0.1236256036
0.5248105287 0.1550000000 -0.3371010281
0.5159098874 0.1559604256 -0.3318506988
0.5868525548 0.1862948905 -0.2148498853
0.6539897684 0.1867227576 -0.1755130749
0.4391402523 0.2723825986 -0.3466719114
0.6261412327 0.1594098816 -0.0272000893
0.6341177905 0.1673792957 -0.0510703566
0.6261766005 0.2689770587 -0.1769231176
0.5205030300 0.1889857597 -0.1649506195
0.3817023162 0.2327615900 -0.0147453983
0.6489881319 0.2112978228 -0.1067980579
0.4500149098 0.2052070708 -0.1995960805
0.3396775121 0.1958471049 -0.3215460325
0.5465463400 0.2164496744 -0.3356082759
0.5793973477 0.1730809688 -0.1475268978
0.4128161313 0.2046811890 -0.2414940815
0.4311117439 0.2889068308 -0.1497405101
0.4307505371 0.2327764370 -0.1083537732
0.5979131332 0.2693247847 -0.0207148376
0.4188788107 0.2223496974 -0.2300000000
0.3679478505 0.2323510972 -0.2474032467
0.4290000000 0.2426539884 -0.1418967260
0.4442242386 0.1693044689 -0.2786440608
0.4695788530 0.1735902411 -0.0604360323
0.6251407494 0.1657297903 -0.1678719781
0.4532317611 0.1762448161 -0.3330455286
0.5398345524 0.1384950372 -0.3082125357
0.3448838051 0.1971124599 -0.3255146192
0.5397562859 0.1725824826 -0.1399789475
0.6548795162 0.2376444130 -0.1311007095
0.6026443778 0.2126443778 -0.2217890812
0.3971119446 0.1941736398 -0.2386414752
0.4781441173 0.1721262237 -0.0639762876
0.4995793707 0.3142851257 -0.1342643875
0.4626858244 0.3074481273 -0.1334416736
0.3846219978 0.1748680253 -0.3180171897
0.5078731005 0.2850000000 -0.0496844838
0.4041865593 0.2251105351 -0.2600000000
0.5357163608 0.2782822669 -0.0504032385
0.6102730400 0.1591673095 -0.1659657480
0.5480017148 0.1689014262 -0.1204805313
0.5537471440 0.1565696490 -0.0555836969
0.4164803430 0.1741826744 -0.3337166473
0.3193475655 0.2166860572 -0.2953710054
0.4196043574 0.3152486059 -0.0666045921
0.4897477384 0.2904911258 -0.0559242564
0.5361764620 0.2667578261 -0.2559689401
0.5397379415 0.1565835671 -0.1866075433
0.4695301520 0.1721215602 -0.0412267277
0.5069951568 0.1590048432 -0.3392650150
0.5054562234 0.1575509437 -0.3206026209
0.4649166328 0.2680933169 -0.1952458147
0.4227352181 0.1797271258 -0.2943178144
0.4111382118 0.2826219190 -0.1070825065
0.4716052238 0.1777999623 -0.0874524517
0.4007884707 0.2851215042 -0.1448237256
0.6498509782 0.2194592912 -0.0510506223
0.5669314024 0.1775590328 -0.1519891725
0.4843855004 0.3135413007 -0.1205742504
0.6282137237 0.2360325150 -0.0163824920
0.5149102738 0.3002415030 -0.1827346434
0.5272633030 0.2690000000 -0.2924935780
0.6457879616 0.2113374714 -0.0170743223
0.6249890357 0.1494888028 -0.0313906174
0.5353645285 0.1372865030 -0.2132162574
0.6457098670 0.2083972821 -0.1800000000
0.5413369189 0.1615203710 -0.0672448566
0.4099448615 0.1729190547 -0.3414017450
0.5815998143 0.3022007005 -0.1531540797
0.3887047997 0.2538065481 -0.2618496691
0.5120154070 0.2463679288 -0.2410332190
0.4444622086 0.2460964450 -0.1295388449
0.5167848754 0.3188644552 -0.1393648380
0.3682187783 0.1854739918 -0.2452487211
0.3693546369 0.1698112255 -0.2818961467
0.3765417471 0.2473424455 -0.2310540937
0.5723629415 0.1642715691 -0.2660284180
0.4444959525 0.2689028942 -0.1629986828
0.5185060977 0.2301348390 -0.3600000000
0.4240621121 0.1708757758 -0.2663706932
0.4350907284 0.1904729802 -0.0209195393
0.5402146573 0.1423138411 -0.2818782371
0.4870887620 0.1843246698 -0.1197974989
0.3689143693 0.3382467356 -0.0288183359
0.6243775372 0.2727767116 -0.1454038525
0.5800000000 0.1769762203 -0.2587109216
0.4645242099 0.3013652992 -0.1472326444
0.5008574996 0.1559274301 -0.2823007418
0.5173225366 0.1710000000 -0.1292131131
0.6189826641 0.2517071171 -0.1899112885
0.5809984624 0.3076948343 -0.1163455180
0.3484655249 0.2791546819 -0.0493392100
0.6331641443 0.2714777648 -0.1750886949
0.3604582454 0.3248406324 -0.0258965486
0.3859021520 0.2459386073 -0.2445273736
0.6520261952 0.2441618287 -0.1182939060
0.4152524433 0.2660000000 -0.3255193895
0.6274642829 0.1804421767 -0.1491407796
0.4579342872 0.1972087338 -0.1918422183
0.6209694517 0.1689083552 -0.0380193243
0.6240000000 0.2397281216 -0.2237939132
0.5491955733 0.3163036794 -0.0945912467
0.5564068228 0.1416677074 -0.3110247988
0.5667158333 0.3160383227 -0.1448821529
0.4698297082 0.1744041129 -0.0331573731
0.4686034813 0.2145784451 -0.1306934653
0.3808656491 0.2432885497 -0.2464520933
0.6231816440 0.1614729232 -0.0322659587
0.6011639017 0.2674358809 -0.0529255952
0.4255472355 0.1788315330 -0.3556312809
0.5202398011 0.2303706657 -0.2164668324
0.5914769057 0.2764356464 -0.1851457466
0.4016253289 0.2173085960 -0.0653634751
0.5657985700 0.1586285517 -0.3239928498
0.5089270611 0.2924047338 -0.0054629707
0.5379019210 0.1619638534 -0.0502704719
0.5912062376 0.1647033116 -0.1188258414
0.5989200882 0.3036329387 -0.1303136056
0.5888557848 0.3016848571 -0.1440826103
0.3859999106 0.2273632839 -0.0353068615
0.4696417911 0.2143219590 -0.1249434129
0.5244162742 0.1415837258 -0.2169052903
0.4838743180 0.2590000000 -0.3279215460
0.5730147122 0.1663253795 -0.3204766581
0.3628111694 0.2796616533 -0.0157957111
0.4266095399 0.3068316403 -0.0603843159
0.5149964545 0.2748496969 -0.2949591560
0.6586791145 0.2047441528 -0.0965593494
0.4913822377 0.1707353699 -0.0457423297
0.4653213396 0.3308643180 -0.0295407893
0.4002870325 0.2671488580 -0.3438453730
0.5023436919 0.2543844358 -0.3389196911
0.3739104090 0.2476511781 -0.2719364809
0.3897761412 0.1768010503 -0.3050671503
0.5195366155 0.1638210544 -0.0302220232
0.3724779752 0.2625037822 -0.0311521418
0.5317615138 0.1417984944 -0.3027024130
0.3974742015 0.2907734469 -0.0922237278
0.3716667239 0.2355296882 -0.3519660164
0.5232580345 0.1500000000 -0.2915243936
0.4589557590 0.2105685381 -0.1948871177
0.5800000000 0.1787953887 -0.2134296013
0.5067317479 0.2234878319 -0.2322009979
0.4990033537 0.1494150739 -0.2354142922
0.6506525384 0.1708507483 -0.1167373079
0.4804915061 0.2889523296 -0.1937712346
0.5682247893 0.2720432063 -0.2576080157
0.3603564708 0.2230299167 -0.2436435292
0.5547734752 0.3009251987 -0.1884933693
0.6512733872 0.1976590223 -0.1004700668
0.4423681143 0.3349534867 -0.0615712752
0.5260314159 0.2603371220 -0.3165747551
0.6122099133 0.1644414928 -0.1327735612
0.6111240329 0.2562155787 -0.1912458462
0.3632490980 0.2480201969 -0.2913803885
0.5696883966 0.1606883966 -0.2513324873
0.5000000000 0.2261521686 -0.2473640165
0.4439885606 0.2359749303 -0.1198642290
0.5033287287 0.1714791284 -0.1025475786
0.5221804106 0.1422496907 -0.2231242268
0.4294843475 0.1849861029 -0.0602111734
0.5895561125 0.2698973153 -0.2143167848
0.5843685486 0.1833685486 -0.2623039846
0.6280120611 0.1883685834 -0.0112015808
0.6399859078 0.2336259006 -0.1833884197
0.4938829825 0.2925143481 -0.0118842843
0.3490689911 0.3182060154 -0.0370250200
0.4306594007 0.3565067970 -0.0645645962
0.5839346481 0.1626734031 -0.1076800853
0.5650000000 0.1535435015 -0.2397523185
0.4310525101 0.3240525101 -0.0541564353
0.5028856172 0.2166262464 -0.2383682406
0.5794245915 0.1760742756 -0.3073188362
0.4878551422 0.1932011593 -0.1767182140
0.3796741709 0.2465980501 -0.2641032327
0.4768936511 0.2750440809 -0.1864526844
0.3509018929 0.1940513308 -0.3369549787
0.4662302485 0.3249381110 -0.0286464290
0.4758666666 0.2880413246 -0.0420826492
0.4026469298 0.2402889086 -0.2523209894
0.6030634310 0.2127089540 -0.2053681242
0.5841907403 0.2162016290 -0.3014884253
0.5418462049 0.1828226742 -0.1492376558
0.5203674959 0.1438952091 -0.2128283812
0.6340141259 0.1769074350 -0.1833451049
0.4537806518 0.3272401577 -0.0402129136
0.4656669143 0.2209454047 -0.1853467381
0.5735850863 0.2350711879 -0.2877567765
0.5446245391 0.1658553510 -0.0954599600
0.3898562049 0.2275690613 -0.0488870178
0.4995163321 0.1680295634 -0.0547895195
0.6664748168 0.2263315993 -0.1750000000
0.5122930121 0.1450000000 -0.2437540763
0.4858368731 0.1776860595 -0.0969439007
0.4652631293 0.2098440539 -0.1776583206
0.4400000000 0.2461616557 -0.1332680758
0.4784009319 0.3127972553 -0.1515733890
0.4497249439 0.1989112143 -0.0881462914
0.3937442854 0.1730000000 -0.3107702539
0.4343574288 0.3620058845 -0.0557815391
0.4427646576 0.3090319703 -0.1140495646
0.6116623055 0.2828113375 -0.1491721181
0.6014536210 0.2971098778 -0.1202354524
0.4517456006 0.2960373360 -0.1444238411
0.6090102301 0.1450000000 -0.1865942010
0.5840555006 0.1846954753 -0.3165572310
0.3539435894 0.2298410255 -0.3218267891
0.5193589908 0.3036121953 -0.1764082528
0.5208585665 0.2606996216 -0.3195321637
0.6267625980 0.1529555912 -0.0573129409
0.3724354764 0.2501385183 -0.0117943454
0.5980172297 0.2833340856 -0.1751040604
0.4406908889 0.1730000000 -0.3372025775
0.5738758576 0.2778956919 -0.0405640688
0.3695355246 0.1707865773 -0.2931513664
0.3330162912 0.2198589184 -0.2850554267
0.6428859787 0.1922843310 -0.0833551597
0.4832787480 0.1999852697 -0.2591704776
0.4764366945 0.1627998042 -0.2991817593
0.3557651258 0.3214810475 -0.0336284321
0.6600308896 0.2294068592 -0.1761520411
0.5962232288 0.2487200790 -0.2607087042
0.5063364004 0.3190756461 -0.1467932198
0.3492202395 0.3378836906 -0.0466827448
0.4823378437 0.1627628056 -0.2203915966
0.4054952346 0.1804428562 -0.2307380936
0.5424782644 0.1365072452 -0.2599772540
0.5263592017 0.2522532363 -0.3244976619
0.3460800805 0.2247880805 -0.3214599999
0.4757975876 0.1722107071 -0.2513293127
0.4701234846 0.3059695869 -0.1514904197
0.4610528426 0.3255767255 -0.0313637050
0.5613111523 0.1770199042 -0.1429618324
0.5499477939 0.1690000000 -0.1036169633
0.5387418806 0.2252746563 -0.3500000000
0.5339521937 0.1682498328 -0.1162601136
0.4625275059 0.2039857872 -0.1169719474
0.5757671303 0.1693561738 -0.2243456772
0.6131888373 0.1610666671 -0.1215555548
0.4294387001 0.1944017806 -0.0376403519
0.6281654932 0.2483339218 -0.0259133868
0.5984776383 0.2980845357 -0.1435945650
0.5800000000 0.1777821856 -0.2470702990
0.3916982143 0.2036215283 -0.3600000000
0.3852807754 0.2215227157 -0.3574961156
0.4013644720 0.2031632186 -0.0321713730
0.5322613748 0.1640809610 -0.0780129824
0.6467643508 0.2216420447 -0.1807735374
0.5341365592 0.1584219878 -0.0323456482
0.4788901182 0.1746288943 -0.0731444713
0.5195198182 0.2091117810 -0.2141336364
0.4552910367 0.2064733947 -0.1950000000
0.4981553279 0.1560112779 -0.3104898690
0.4630251455 0.1648128760 -0.3112205860
0.5022630822 0.2922644233 -0.0042233501
0.3701030355 0.2494639747 -0.2972232695
0.5895517426 0.1905369590 -0.2403526240
0.5678607073 0.3148672939 -0.1248755087
0.5312518200 0.1484114900 -0.3210287250
0.4771610914 0.1715141776 -0.0315411275
0.5090000000 0.2500098126 -0.2543430896
0.4135465604 0.2725866528 -0.1354589367
0.4122317059 0.2342981045 -0.2490888451
0.5629517100 0.2780000000 -0.0385025881
0.4037878693 0.1716864181 -0.3387003558
0.6177544103 0.2325906839 -0.2537694960
0.4928041609 0.2836451315 -0.1750000000
0.6016298617 0.1418628673 -0.0233295881
0.4274363607 0.1742532689 -0.3252216932
0.3418939103 0.2259183733 -0.2890291373
0.6082752004 0.2597878547 -0.2192121453
0.6080127275 0.2210095457 -0.2154542858
0.4027318155 0.2103298405 -0.0445213146
0.5179225718 0.1444208739 -0.2538175324
0.6459601781 0.2579886678 -0.1174328389
0.6523939105 0.2441375847 -0.1302601609
0.3674717920 0.2312442555 -0.2405688412
0.6207803439 0.2714174213 -0.0819793934
0.3569829106 0.2930862851 -0.0361780414
0.6372177419 0.2001883394 -0.1667822581
0.3619475505 0.2845801011 -0.0354159699
0.3961958229 0.2753132995 -0.1400000000
0.5949484375 0.1654481066 -0.1286450915
0.5990000000 0.2043711971 -0.2439565191
0.3748929537 0.2047778616 -0.3550000000
0.4177052577 0.1985378081 -0.0530053817
0.5007236591 0.2508933225 -0.2620850172
0.5885730122 0.1883595183 -0.2626510663
0.4490028541 0.1755762228 -0.1948649991
0.5843982474 0.2650761586 -0.2423096034
0.5276511103 0.1815035828 -0.3596382721
0.4359937731 0.3062957995 -0.1380880557
0.6033320501 0.1472128211 -0.0314347011
0.4376630758 0.2374233843 -0.1206661182
0.4126236124 0.1992075065 -0.0398648578
0.6479074210 0.2349090469 -0.1382323360
0.4678106576 0.3067743590 -0.1279057769
0.4102390282 0.1784592041 -0.2914381715
0.4839009921 0.1766109392 -0.1030540405
0.4993158881 0.2374267131 -0.2570591340
0.5843525591 0.1833525591 -0.2788062771
0.4077192739 0.1727849966 -0.3217372400
0.4600960496 0.3407754864 -0.0400021436
0.6459348964 0.2326217150 -0.1447725444
0.5856149750 0.2842484178 -0.1911366072
0.4697694931 0.1880775032 -0.2594503621
0.5717029933 0.3132311097 -0.1538828744
0.4599559589 0.2998901678 -0.1261391605
0.4955661412 0.2850000000 -0.0468282997
0.3963637217 0.2558744442 -0.2899031877
0.6582803375 0.1876665614 -0.0885046804
0.5203102317 0.2523761075 -0.2326587060
0.5888424319 0.2746750418 -0.2029021052
0.4641782323 0.1808449570 -0.0776648171
0.5791864933 0.3010317302 -0.0829942949
0.6365635833 0.2211944880 -0.1898191440
0.6374014248 0.1553777921 -0.0994714081
0.3742602071 0.2375466498 -0.2423505810
0.4961454585 0.2008979760 -0.2400000000
0.5710000000 0.1620592825 -0.3090523988
0.4421171003 0.1828736670 -0.0299766581
0.4742379404 0.3180193244 -0.0969293045
0.4472566715 0.1928660740 -0.0809571418
0.3539665799 0.2638532411 -0.0468767290
0.6372784636 0.1963454390 -0.0149594629
0.4406287532 0.1843804667 -0.0544016723
0.4926653544 0.2177824641 -0.2600000000
0.5133573812 0.1620000000 -0.1859451877
0.3882414733 0.2826628998 -0.0785631913
0.5999358654 0.3025082157 -0.1368256564
0.6477000242 0.1842333414 -0.0207552141
0.5142318339 0.2587732554 -0.3220445744
0.4756092104 0.2943116285 -0.1700000000
0.5511012008 0.1664812987 -0.0952702391
0.5542865372 0.2779876551 -0.0438686556
0.4371945804 0.1958518087 -0.0703788434
0.4600744032 0.1681808871 -0.3049416210
0.6602439628 0.2422524329 -0.1222152276
0.5323977518 0.1632709717 -0.0458861876
0.3976160363 0.1882356638 -0.2600000000
0.4978252139 0.2664806453 -0.3086485671
0.6514710146 0.2055085746 -0.1129136229
0.3767634812 0.2527444379 -0.0185744766
0.5597298476 0.1673209972 -0.1094033240
0.5672596607 0.3075194425 -0.1092843654
0.5540792152 0.1589366279 -0.0652950520
0.5090443842 0.2731092493 -0.3011203861
0.5376183326 0.1773281926 -0.1436068272
0.5336871439 0.3168020265 -0.0844963901
0.3668142051 0.2395660159 -0.2544575199
0.5837237795 0.2943508379 -0.0734793636
0.3382404836 0.2239265165 -0.3083566812
0.3201198683 0.1830677860 -0.2813572747
0.4316666325 0.2479089214 -0.2515084618
0.4471417647 0.1711572455 -0.3038537338
0.4100157879 0.2091992720 -0.2600000000
0.6065429221 0.2690887890 -0.1900000000
0.4049624604 0.2058639842 -0.0262839874
0.4974543915 0.1729742002 -0.1014880791
0.5430207427 0.2718155237 -0.2598534150
0.4346397151 0.3356067220 -0.0642347657
0.3181829234 0.2038203229 -0.2954481851
0.5249809463 0.1515417277 -0.1977975319
0.4216691476 0.2177798577 -0.2551577009
0.5325216882 0.1652532134 -0.3507768378
0.5455807750 0.2570000000 -0.3048501894
0.4035069694 0.2972582434 -0.0860349547
0.3791634186 0.2430407228 -0.0229911286
0.5928855388 0.2752254949 -0.0538466377
0.6429629383 0.1619974889 -0.0810490740
0.6278112447 0.1871264973 -0.1461050007
0.5094842831 0.3143979981 -0.1313311238
0.3470192186 0.2046286684 -0.3330399058
0.5188507184 0.2186914372 -0.3600000000
0.5857116330 0.1646917682 -0.1140056686
0.4997051218 0.2037051218 -0.2301293657
0.3729178510 0.2439803596 -0.0542069198
0.5587206358 0.1465404769 -0.2450350697
0.4244816296 0.2386883342 -0.0850000000
0.5941773943 0.1715343970 -0.1477371490
0.3492582149 0.2940750503 -0.0555904771
0.3875591962 0.2542821973 -0.2843974991
0.5430408700 0.1360000000 -0.2105475327
0.5953842451 0.2915858187 -0.1553291054
