0.5757975254 0.1446245662 -0.0176455055
0.5878004217 0.2542097153 -0.2597309579
0.3867522551 0.1723211955 -0.2941601894
0.3600324652 0.2795337399 -0.0093453303
0.6361637307 0.2391628784 -0.0312383581
0.3780173526 0.1731883146 -0.2698254752
0.5777322921 0.2106508904 -0.3135083537
0.3169290485 0.2111831012 -0.2904242951
0.5899136785 0.2681997683 -0.2284791336
0.5052885755 0.1887017668 -0.1762501757
0.4802866794 0.2847136799 -0.1853389397
0.4495526567 0.1803094243 -0.0479085953
0.6065116765 0.1503832836 -0.1773934294
0.6591284428 0.1943491340 -0.0817220414
0.5011397522 0.1603172354 -0.3274283128
0.6477663503 0.1725027419 -0.0822924317
0.5452705195 0.1395283157 -0.3185283157
0.5500099395 0.2286774086 -0.3256492984
0.3524781710 0.3074533815 -0.0385965519
0.5930934635 0.3041016380 -0.1204363973
0.4836505667 0.1730000000 -0.0772077360
0.6385927258 0.2028411265 -0.0146396415
0.5594631992 0.1474631992 -0.3151299449
0.4994076418 0.1505923582 -0.2494851730
0.6471079634 0.2333559939 -0.0423201159
0.5815469320 0.3070857837 -0.0922855407
0.5173756085 0.3054742062 -0.1713786522
0.5451530395 0.2694640392 -0.2437082687
0.4798363590 0.2891535951 -0.0518473229
0.4184818209 0.3020432730 -0.1031477238
0.5563880264 0.2831160201 -0.0571410177
0.5960000000 0.2015378355 -0.2663738601
0.5061706250 0.2287680134 -0.2347156249
0.4757941651 0.1743143921 -0.2486124065
0.3647728425 0.1697312179 -0.2852429536
0.5959692230 0.2969723464 -0.1458019396
0.6412672439 0.2439606270 -0.1830393730
0.5856296285 0.2930079642 -0.0714399488
0.4757952937 0.1709553447 -0.0435172933
0.6199637296 0.2494179643 -0.1894947172
0.4962610439 0.2104711127 -0.2512315935
0.4965727292 0.2306572304 -0.2585300554
0.4137493009 0.2401804438 -0.0921645158
0.4606169592 0.1678178263 -0.1959108683
0.5376491834 0.2549091255 -0.3170908745
0.4344514403 0.2725895282 -0.1581987501
0.5985809608 0.2865857937 -0.1692130520
0.4750491661 0.2557466586 -0.3098083468
0.4741785906 0.1707676847 -0.2600000000
0.3784773825 0.2426389770 -0.2500893898
0.5921780702 0.1937671053 -0.2454947588
0.5500589403 0.1347296246 -0.2115282565
0.5279565927 0.1616663648 -0.3545685144
0.5216677756 0.3179891860 -0.1144282694
0.5976978170 0.1560065014 -0.1742764266
0.5775474435 0.1719124058 -0.2137379482
0.5684734842 0.1806843439 -0.3278907513
0.5368926987 0.1705365467 -0.1261586331
0.5754539506 0.3060000000 -0.1069924960
0.4154586888 0.2255747818 -0.2364402742
0.6278405513 0.1731004934 -0.0151138272
0.5794510697 0.1590000000 -0.0874051406
0.6516859920 0.2270957313 -0.0349095840
0.5597605794 0.1612566607 -0.0872791239
0.5033894911 0.1493221018 -0.2584341068
0.6352823916 0.2284718791 -0.0099510509
0.6514274130 0.2350887806 -0.0649086166
0.5055220917 0.1494229904 -0.2153893114
0.4754413131 0.2635737846 -0.2810655385
0.5402447606 0.1562059030 -0.1872533180
0.3628202999 0.1844416514 -0.2534624985
0.4319387206 0.1902267455 -0.0644884251
0.4674728710 0.2031436857 -0.1179180164
0.6374412352 0.1644838823 -0.0629982350
0.5939042786 0.1592517603 -0.1696403425
0.4008887859 0.2363796363 -0.2368981815
0.6117660845 0.1489633100 -0.0339725393
0.4748342065 0.2917538129 -0.0544726470
0.4814063349 0.1643828035 -0.2300196095
0.4601209103 0.2582411897 -0.3183884093
0.4296506796 0.2411126689 -0.1123800966
0.5845904679 0.1612915712 -0.1744101955
0.4869038021 0.3143420919 -0.1212404201
0.5656083385 0.2995792433 -0.1816680608
0.4668649173 0.2126193408 -0.1208649173
0.5090000000 0.2467875959 -0.2549628930
0.3610484619 0.2753130607 -0.0395480968
0.5310783322 0.1690000000 -0.1094351302
0.4369286859 0.1730000000 -0.3269596972
0.5704094544 0.1656152045 -0.1140380111
0.3712688810 0.1763659760 -0.2679472221
0.6515575337 0.1925755885 -0.0768245144
0.5845451080 0.1840902159 -0.2309989724
0.4297577943 0.1767086294 -0.2964716165
0.6287936814 0.1593074417 -0.1415534817
0.5838566427 0.2138757653 -0.3010708034
0.3504531941 0.2293239917 -0.2671228393
0.6612020318 0.2427787507 -0.1234972037
0.3316953508 0.2223149259 -0.3018769049
0.6054881866 0.2139696117 -0.2408136443
0.6481797803 0.1654108495 -0.1101911566
0.3785860951 0.2506099535 -0.3075363278
0.3802655631 0.2281381158 -0.0557307349
0.4892185250 0.2620000000 -0.3268775782
0.4735488351 0.3037069187 -0.1601308866
0.4584314906 0.2066907348 -0.1161734625
0.3506147100 0.1885227767 -0.2373513124
0.4040379802 0.2456413465 -0.2476218142
0.4429665918 0.3380154135 -0.0601074371
0.6110145749 0.1605514753 -0.1270609115
0.5180488091 0.1430000000 -0.2321584164
0.6254494848 0.1846574335 -0.0542025651
0.3503384686 0.2980134859 -0.0153956224
0.3282676617 0.2208361564 -0.3064016294
0.4492274500 0.1758559347 -0.1947216024
0.5857855775 0.2656771418 -0.2369100236
0.6297650801 0.1705873863 -0.1529844842
0.4695365210 0.1675387020 -0.3181356257
0.5078067836 0.2889338526 -0.0578677051
0.4637079737 0.3063725270 -0.0697218989
0.3840000000 0.2606388933 -0.3513665722
0.6383046738 0.2487266393 -0.0957355903
0.5767392168 0.2894185938 -0.0684551340
0.6701385616 0.2288496170 -0.1250000000
0.5090571313 0.1918308597 -0.1668539744
0.5460402821 0.3050995964 -0.1799000868
0.4386219649 0.2772232572 -0.1584741504
0.4032419449 0.2689240206 -0.0927325151
0.3582798535 0.2108335978 -0.3443998779
0.5760765319 0.1507500043 -0.0587499929
0.5077550758 0.1640391310 -0.2135374369
0.6257521386 0.1922724744 -0.0055995803
0.6374267161 0.1781093360 -0.1609583033
0.5208746488 0.2323960928 -0.2167725064
0.5286555986 0.1647310847 -0.0451016030
0.4659243181 0.2181977498 -0.1207758039
0.4919738873 0.2866465440 -0.0395871726
0.4639592790 0.3457416633 -0.0164952884
0.5910609030 0.1920913545 -0.2610390745
0.3984386350 0.1711167123 -0.3387238603
0.3202223348 0.1801485781 -0.3003839069
0.5378683622 0.1664341811 -0.1079775792
0.4232295963 0.3122519045 -0.0617790798
0.6325148621 0.1728367864 -0.0450000000
0.5741188255 0.2829871596 -0.0631759816
0.6440441006 0.2361993289 -0.1802483195
0.5783227464 0.2940398981 -0.0741749881
0.5624114318 0.2718199013 -0.2448072224
0.5834472735 0.2728543068 -0.0103642330
0.6163292748 0.2302154580 -0.2481491035
0.6174832094 0.2404438963 -0.2391386824
0.5101002971 0.2512765385 -0.3564995049
0.5285629652 0.2273150356 -0.2100000000
0.6040133551 0.2927834942 -0.1417721086
0.4975860841 0.2173853058 -0.2440502777
0.4443873193 0.3239030028 -0.0607241319
0.3965316836 0.1722072608 -0.2641376708
0.4459066258 0.2297197089 -0.1150000000
0.5743860353 0.1675147137 -0.2366332043
0.3302257747 0.1861721204 -0.3097242877
0.3643840505 0.3446891821 -0.0080892441
0.3864467626 0.2516722592 -0.3100854668
0.4052842152 0.2053900749 -0.0296263063
0.3893765187 0.2590000000 -0.2691371863
0.5028935052 0.2099234569 -0.2355622650
0.6499646843 0.2190501078 -0.1548822812
0.6349570461 0.2584169670 -0.1513978901
0.3740424884 0.2441603207 -0.0403591363
0.5830000000 0.1844866444 -0.3102265202
0.6174569033 0.2584925456 -0.2040458740
0.4829122241 0.1647377853 -0.3216986338
0.5903947675 0.2951242403 -0.1688841999
0.4336867364 0.2711258605 -0.3401258605
0.5627527966 0.2812996128 -0.0556664022
0.4957657375 0.1696367280 -0.0547315844
0.5075897840 0.2430182648 -0.2413684443
0.3839292445 0.2506408917 -0.3362361443
0.4920920951 0.2113694417 -0.2600000000
0.5990474325 0.2720165156 -0.0349174218
0.3837010375 0.2252255595 -0.0503127160
0.5013585745 0.1555802286 -0.2950725682
0.5497916751 0.2725833501 -0.2472857589
0.3665748992 0.3366394747 -0.0328588989
0.5004218671 0.3151199284 -0.1593487393
0.6430220543 0.1915977974 -0.0823345928
0.5072371457 0.2632726362 -0.3186988956
0.3466319163 0.1718149910 -0.3109661296
0.4900414711 0.1687809197 -0.3364718338
0.4487825574 0.2717410823 -0.1568045319
0.5339385660 0.1559915502 -0.3366577292
0.5142308553 0.1441478222 -0.2272094637
0.6271969792 0.1786884434 -0.1489462852
0.5338902751 0.1840669367 -0.1629550083
0.4102664503 0.3398668913 -0.0459997672
0.5542235112 0.1576800257 -0.0498441271
0.4655158841 0.3218497162 -0.0292411339
0.5599873986 0.3012966985 -0.0772966985
0.4142820193 0.2058471604 -0.2442927466
0.5485901165 0.1391299903 -0.2771331554
0.4480758695 0.2119522865 -0.1084597826
0.5152493700 0.1467506300 -0.2126438791
0.5155950438 0.2012318933 -0.2149303239
0.5727953398 0.1807717034 -0.3341340010
0.4832642433 0.2729758882 -0.2653206684
0.5736297282 0.1711499071 -0.1386120082
0.6263417106 0.1891743917 -0.0100760540
0.6130501589 0.1610328602 -0.1216118997
0.4503806433 0.3450040434 -0.0507666915
0.5210315659 0.2867208930 -0.0607642823
0.4097857829 0.2331759833 -0.2456126514
0.3448366977 0.3204318382 -0.0587831772
0.5707647798 0.1619359134 -0.3116755355
0.4908653647 0.1645892773 -0.3259058756
0.5697794883 0.1574575107 -0.0749587814
0.5000438636 0.3136707745 -0.1316769362
0.5598930802 0.1993403114 -0.3255429440
0.6161003688 0.1590000000 -0.1654366238
0.5859847239 0.1478980436 -0.1959647193
0.4291410471 0.3490011002 -0.0649294764
0.6296176055 0.2059387977 -0.2000000000
0.4476607118 0.2342609287 -0.1185507739
0.3837057808 0.2216732377 -0.0550423155
0.4939140521 0.2712528771 -0.2783264688
0.5885849867 0.1896983023 -0.3160187836
0.3836352754 0.2541278067 -0.3538470670
0.6064261044 0.2691693182 -0.0335901003
0.4487727833 0.1785321486 -0.0418338290
0.4711677799 0.3075995191 -0.1408069237
0.4034438737 0.1730000000 -0.3106836136
0.3739137083 0.2468848779 -0.0136421354
0.5506828663 0.1360000000 -0.2530612607
0.6262416914 0.1546823972 -0.1168182211
0.6313191090 0.1685694082 -0.1578398471
0.5900000000 0.1957453180 -0.2997128522
0.5692531456 0.1736067062 -0.1610467274
0.4710330109 0.2571591129 -0.3153977823
0.5352183279 0.2368608027 -0.3355743934
0.4420670266 0.1832535452 -0.0253829603
0.4626943301 0.1654647229 -0.3074664876
0.6594991415 0.2389307860 -0.1188465609
0.4477508375 0.3410180165 -0.0544427354
0.3496526184 0.3275879118 -0.0083684539
0.4069816542 0.1752375872 -0.3476727975
0.4678727496 0.1791231091 -0.0879461297
0.4698761045 0.1792550298 -0.2585398258
0.4371478125 0.3174623403 -0.0853898472
0.6261950225 0.1538046189 -0.1256845532
0.5333659569 0.3162075743 -0.0841911771
0.3631038036 0.2479606198 -0.2913764070
0.6102308267 0.2931006650 -0.1198858788
0.4798710121 0.1622382413 -0.1988087936
0.4322635606 0.2370394061 -0.2538705670
0.5466757040 0.1774465818 -0.1450426412
0.4259616843 0.2353237325 -0.0850000000
0.5385347189 0.2637970330 -0.2951449765
0.5254964926 0.1410000000 -0.2158791800
0.6202098712 0.1708025362 -0.1469604961
0.5736065436 0.1490776569 -0.1968293523
0.4189868861 0.3044192044 -0.1095763097
0.6403759724 0.2127561053 -0.1493278778
0.4199650323 0.1894154241 -0.2508624731
0.3304002933 0.2162804629 -0.3120568678
0.3585478112 0.3440667848 -0.0143905056
0.6399295002 0.2177514835 -0.1821932142
0.5180929636 0.2643467050 -0.3127554916
0.6288949372 0.1500688187 -0.1757401743
0.5090628845 0.1718912154 -0.1108540772
0.5478139178 0.1752510670 -0.3488313361
0.5869458255 0.1870841002 -0.2754435233
0.6229955100 0.1646235824 -0.0406938004
0.5810832333 0.2210858416 -0.2862426951
0.3651711821 0.2786767449 -0.0302428388
0.4261703584 0.3085969085 -0.1012265780
0.3847610896 0.1739503950 -0.3116922366
0.4586086028 0.1763620479 -0.3356980702
0.5360989050 0.1774281592 -0.3565004212
0.5560011877 0.2754544530 -0.2190907551
0.4484348558 0.1914073653 -0.0727406360
0.6517805696 0.2342318465 -0.1354579995
0.5032012257 0.1482694562 -0.2056736406
0.5391198801 0.1490134086 -0.1960466932
0.5631233337 0.3115979624 -0.1071311732
0.5166734931 0.1950707752 -0.1456641690
0.4671713150 0.2223773945 -0.1851569324
0.5161936957 0.1654350485 -0.0360876213
0.5153021970 0.1890587467 -0.1654999099
0.4258041403 0.3085192891 -0.1091345182
0.3636181215 0.3297260685 -0.0275235367
0.5414791264 0.2358561595 -0.3308160161
0.6196707351 0.2327845586 -0.2121385495
0.4922087888 0.2940113672 -0.1899886328
0.6230530649 0.2677275752 -0.1100000000
0.3870389025 0.2257452080 -0.0384009084
0.6455639128 0.2390322537 -0.0492318093
0.4698509344 0.2131315168 -0.1304260492
0.3686505180 0.2396727142 -0.2545908927
0.5037214267 0.3127786937 -0.1639269330
0.5473873139 0.1811286690 -0.3508959367
0.5916709198 0.3039544204 -0.1407053962
0.5956590590 0.2739094591 -0.0641022034
0.6330290396 0.2363793206 -0.0082653252
0.5664187954 0.1613792003 -0.3270939769
0.4035961437 0.2649899009 -0.3600000000
0.3868650994 0.2724699008 -0.0800000000
0.5053583572 0.1963906557 -0.2182571732
0.5145972422 0.2500000000 -0.3418665648
0.6556949596 0.1950987388 -0.0275017985
0.5134794625 0.2071476376 -0.2195699899
0.6368056882 0.2562551666 -0.1458169733
0.4758306892 0.3106119582 -0.0116446007
0.4826445530 0.2695632380 -0.3523154300
0.4234414023 0.1890489662 -0.0595190070
0.6319970533 0.2492037305 -0.1053362767
0.5727261585 0.1708310378 -0.1247013978
0.6459930912 0.1931160325 -0.0939930912
0.5629846860 0.1759584299 -0.1403235839
0.4305065382 0.2387131586 -0.1070944891
0.6026060080 0.2798037974 -0.1767751226
0.5392306832 0.2241128375 -0.3500000000
0.5654938758 0.1560077537 -0.3224693789
0.4070154913 0.1721172957 -0.2844304545
0.4826341247 0.1762699257 -0.0815067507
0.4676722699 0.1754021680 -0.3301240632
0.4112110590 0.2781303091 -0.3585994208
0.4875485666 0.1699782044 -0.0502458084
0.4257292237 0.2399857438 -0.2388920899
0.5130268982 0.3145841969 -0.1260305009
0.5642674649 0.2780000000 -0.0384266821
0.6147665915 0.2644156753 -0.1837484329
0.4230909559 0.2870957625 -0.1498557542
0.4996499898 0.1507000204 -0.2411594887
0.4592171090 0.3343107229 -0.0380721275
0.4681743664 0.2583348147 -0.3208022418
0.5789117485 0.1431959435 -0.1974679126
0.4742373149 0.1629925772 -0.2820350880
0.6077573714 0.1639458219 -0.1320654598
0.3959956162 0.1898548059 -0.2600000000
0.3899677698 0.2242304696 -0.3594838849
0.3221900081 0.2171240653 -0.3050254946
0.4969714636 0.1695081870 -0.0404769664
0.3835826447 0.2310898374 -0.0141636175
0.3776494399 0.2191842142 -0.0581629797
0.4030570829 0.2039583367 -0.0378254545
0.6443823980 0.1834216194 -0.1270247811
0.3850770209 0.2188592063 -0.3570385104
0.5601179975 0.3014067130 -0.1794479349
0.4325246126 0.2572425240 -0.1198507318
0.5972117801 0.2699190970 -0.0460346293
0.5694279612 0.3106098463 -0.0994988123
0.5899356503 0.1630818008 -0.1071231851
0.4764644684 0.2963783126 -0.0306465732
0.4861042849 0.3161042849 -0.1482980007
0.5230917349 0.1607917061 -0.0574404198
0.5352489795 0.1671964981 -0.1131462124
0.5929107965 0.1948661948 -0.2197183202
0.5804104397 0.2207477780 -0.3000000000
0.4917428114 0.1690000000 -0.3444380260
0.4613371335 0.3023219050 -0.0602717384
0.6081689543 0.1450000000 -0.1871663802
0.6343368240 0.2506119757 -0.0403025456
0.4733092124 0.1822494456 -0.2050000000
0.4991439785 0.1726783090 -0.0964278546
0.4136984714 0.2099684992 -0.2561113479
0.4834455198 0.1623729645 -0.3150234463
0.3795442822 0.1778655405 -0.3506171194
0.5151162193 0.2856913863 -0.0539796220
0.5900768667 0.1998731823 -0.2848718889
0.6338902001 0.2471338658 -0.1798661342
0.3617611748 0.2565011226 -0.0425939949
0.4271041624 0.1785953923 -0.3564884808
0.5919345902 0.2715566027 -0.1925146785
0.6378295744 0.1551887993 -0.1111009414
0.3976871382 0.2275075589 -0.0633604064
0.5031466299 0.2400129841 -0.2501271538
0.5791710048 0.2859386292 -0.0644626294
0.6480574954 0.2265979728 -0.1672741538
0.3495813613 0.3242340792 -0.0598303135
0.4370700948 0.1703306077 -0.2737295755
0.5371416882 0.2491671407 -0.3192070790
0.5876980780 0.1679968844 -0.1289124687
0.4962414040 0.1500772020 -0.2340573484
0.6155905756 0.2775793753 -0.0812260780
0.3902457992 0.1723985706 -0.2640010210
0.5344862491 0.1710292255 -0.1748143645
0.5478810343 0.1366396824 -0.2384007941
0.5468231964 0.1713909771 -0.1684907764
0.4921005494 0.3113956777 -0.1249459503
0.6519191289 0.1983041334 -0.0736489111
0.4334704042 0.2477463463 -0.2555821895
0.4289833207 0.2388501430 -0.2463202707
0.5378723035 0.2830000000 -0.0239411191
0.5459911819 0.1628120224 -0.0830583577
0.4732818174 0.2955197171 -0.0377423892
0.4615169934 0.3022394927 -0.1427415671
0.5580000000 0.1439750933 -0.2478915045
0.4579887688 0.3039712529 -0.1225062557
0.4964733425 0.2007473670 -0.2306850613
0.3190000000 0.1890484369 -0.2915413806
0.5771067041 0.3105635604 -0.1400000000
0.6428405760 0.2572582717 -0.1607920615
0.6532606956 0.1799964961 -0.0849644425
0.5260455265 0.2593495110 -0.2300000000
0.5021317863 0.1645994913 -0.3471145374
0.6288853869 0.1596262694 -0.0515435358
0.5810578620 0.2759814579 -0.0312777804
0.6300949716 0.2513797330 -0.0339589542
0.6351344472 0.2619570840 -0.0992161526
0.5426979867 0.2804817885 -0.0260906674
0.6326056141 0.2569082525 -0.1783326819
0.6434718566 0.2320509367 -0.1455951708
0.4752929306 0.1825200882 -0.2304674532
0.5865942061 0.1868115877 -0.2571315323
0.3979545888 0.2414594763 -0.2556971484
0.6491657642 0.1847219214 -0.0211966670
0.5577304503 0.2972793479 -0.0732793479
0.5951741102 0.1496045822 -0.1967341171
0.5094722158 0.2413192477 -0.2361851129
0.3522843061 0.2042151370 -0.3394035884
0.4632397912 0.1958772446 -0.1127129159
0.3967409965 0.1896535968 -0.2497854952
0.6248154579 0.2693362379 -0.0737604698
0.6268253718 0.1641377509 -0.1090236485
0.5131807274 0.1676037912 -0.0670258024
0.6514084309 0.1976017045 -0.1108559923
0.4448755493 0.1691719222 -0.2772329256
0.5412456801 0.1749809379 -0.1692558862
0.5794534703 0.1763705239 -0.3069534394
0.5993516324 0.1622629327 -0.1039912224
0.4567312823 0.3054504877 -0.0660667912
0.4068603559 0.2346207815 -0.2500000000
0.3416426794 0.1936094862 -0.3210711324
0.5057462039 0.1593776843 -0.1960951397
0.3994120059 0.2907944608 -0.0903139418
0.3855366876 0.2566073706 -0.2806543823
0.3659137964 0.2530955712 -0.0478335972
0.6479588647 0.1972258942 -0.1789901390
0.5106121610 0.1766131199 -0.1222262397
0.6364192647 0.2048610656 -0.0544705177
0.4464645678 0.3082361220 -0.1195277560
0.5584895702 0.1657532436 -0.1716184499
0.6400677109 0.2100291652 -0.0520677109
0.4381372071 0.2454532082 -0.1562127038
0.5950915560 0.1961773126 -0.2321616921
0.4928618788 0.1764852518 -0.0852402359
0.4929858197 0.2224808164 -0.2600000000
0.6434053505 0.2142064744 -0.1694096340
0.5508054257 0.3163892023 -0.0877432851
0.5558496710 0.2868670436 -0.0620357124
0.6178689991 0.1579320005 -0.0855259690
0.6498627970 0.2697357988 -0.1238627970
0.5701996324 0.2385202956 -0.3070009190
0.3914415019 0.2458764023 -0.2306473259
0.4383941214 0.2501296154 -0.1349016172
0.4104099472 0.1799791752 -0.2949479381
0.3937393136 0.2828522052 -0.1500000000
0.3547480602 0.2753216042 -0.0481055480
0.4897469010 0.1707539860 -0.0245550822
0.6050821483 0.2928068172 -0.1550000000
0.4926560062 0.1582349625 -0.2919733781
0.5651502105 0.1561502105 -0.2371498833
0.4489056323 0.3280529521 -0.0439572433
0.5740176858 0.1678097593 -0.2963397734
0.5877558213 0.2881420666 -0.1754134996
0.3565468104 0.2793900537 -0.0401867406
0.4957801917 0.3149442586 -0.1531966109
0.4620000000 0.2331516294 -0.1973321542
0.5495380399 0.1690000000 -0.1049711809
0.5154209333 0.2839223164 -0.0390059976
0.6590421330 0.2271237060 -0.1188830135
0.3773332245 0.1737355797 -0.3213367757
0.5819646758 0.3059367551 -0.1459284466
0.6361820807 0.2688539873 -0.1193193947
0.6135830280 0.2935468432 -0.1278789551
0.5798498976 0.1363391780 -0.2000000000
0.5174471241 0.1514191419 -0.3085478547
0.4784147348 0.1716917749 -0.0365411253
0.3864334969 0.2212607279 -0.0425132108
0.4546978366 0.3307471338 -0.0410971778
0.6125790694 0.1538477840 -0.1800759342
0.3220000000 0.1828345682 -0.2755821042
0.6535444694 0.2424479051 -0.0728332162
0.4294372976 0.2520434774 -0.1442269020
0.4798945099 0.1620000000 -0.3069637709
0.5167953159 0.1448208375 -0.2572724351
0.4274820711 0.3102352861 -0.0585324833
0.3887147937 0.1856892995 -0.3582510246
0.4819069178 0.2045802113 -0.1710141348
0.3704212273 0.1827216930 -0.3510530681
0.6410797503 0.2266302814 -0.1500000000
0.4820336339 0.2590000000 -0.3257821721
0.5858408991 0.2724020615 -0.0596226640
0.6452522431 0.2494603871 -0.1608376947
0.6562296044 0.1869473499 -0.1750000000
0.5750321860 0.1702386295 -0.3082796899
0.5938848445 0.1964747409 -0.2557018412
0.5877402904 0.2742034237 -0.0311936848
0.5340463229 0.1432811350 -0.2794874707
0.6022377339 0.2122377339 -0.2187420691
0.5667385221 0.1397911063 -0.2007839527
0.4913144276 0.2850927921 -0.0449827194
0.3355685741 0.1877328869 -0.3127568863
0.6533178775 0.2503978584 -0.1416228113
0.3747589060 0.2562908947 -0.0282161937
0.3685692626 0.1703745528 -0.3074922622
0.4358519452 0.2768991175 -0.3537929875
0.6177475237 0.2325792061 -0.2535085058
0.3895110565 0.1738539254 -0.3060894831
0.3578415073 0.3041379333 -0.0148821567
0.4187523632 0.2578124477 -0.2888251057
0.4430108930 0.2703497050 -0.1683318590
0.4540885027 0.1690000000 -0.2848395760
0.5645057610 0.3170388733 -0.1416132639
0.6378898787 0.2530127912 -0.1517045328
0.4982950960 0.1566427043 -0.2874688186
0.5683215154 0.1701906368 -0.1289297761
0.5644824935 0.2775939490 -0.0491066599
0.3542570850 0.3237892460 -0.0056190958
0.4497165170 0.2044640424 -0.1993737627
0.6001573522 0.1500000000 -0.1805036180
0.6244266413 0.1996000060 -0.1964518498
0.4329424035 0.3027810777 -0.1336073356
0.5866786550 0.2030155782 -0.3080496537
0.5217921288 0.3180870606 -0.1366865963
0.6479168644 0.1689821253 -0.0878431773
0.6376734178 0.1783335037 -0.0360984009
0.6400937816 0.2157043826 -0.0503893990
0.4235096595 0.2176988687 -0.0949331223
0.3607135123 0.1747314424 -0.3358482751
0.4109030001 0.2007671545 -0.0376175880
0.4968654885 0.1830625803 -0.2218209549
0.3526126735 0.3401001711 -0.0443572650
0.4005910296 0.2800469046 -0.0888395649
0.4775961890 0.2921320204 -0.0355070507
0.3543937008 0.2160208351 -0.3423261480
0.5421595254 0.1360000000 -0.2102090569
0.4505911898 0.2184386334 -0.1150000000
0.6052565409 0.2604528826 -0.2210059139
0.5773518084 0.1718208863 -0.3027490201
0.4370259601 0.1749740399 -0.2990693904
0.6472554020 0.2394244509 -0.0553417406
0.4985739951 0.1664743532 -0.0229270669
0.5926842696 0.2212104869 -0.2750686188
0.4987011427 0.2879578795 -0.0169726279
0.3954869098 0.2349342815 -0.0609609965
0.4236910098 0.2459157368 -0.0953651471
0.4273470230 0.2813404471 -0.3584175573
0.5119256798 0.2714589226 -0.3047308801
0.6225690510 0.2447044055 -0.1879440233
0.5831753521 0.1821753521 -0.2895016222
0.4723320725 0.2631602451 -0.2908194857
0.4576534215 0.1695258769 -0.3030551802
0.5225239768 0.2467846976 -0.3360765121
0.4971103725 0.2242939657 -0.2548160458
0.6520618711 0.2102441509 -0.0354956986
0.4130753655 0.1965270736 -0.2400000000
0.5350988953 0.1402564147 -0.3101045830
0.6402657746 0.2264446754 -0.1690718709
0.5787348570 0.2270826555 -0.3022718907
0.4455629955 0.2769030081 -0.1563808784
0.5028152693 0.1934450777 -0.1695866521
0.6018083572 0.2088722382 -0.2428651208
0.3720648245 0.2365181879 -0.2407188569
0.3888163697 0.2287162780 -0.0472214464
0.6495985709 0.2290419058 -0.1590142909
0.5747007859 0.2206059358 -0.3150000000
0.4249275984 0.1947093101 -0.0482914452
0.6538249205 0.2270788808 -0.0611450054
0.6328148266 0.2424095398 -0.0059210129
0.3507685886 0.3202815313 -0.0650000000
0.6241929988 0.1505036101 -0.1797473938
0.5822384572 0.2755474645 -0.2057542258
0.5392881347 0.1865369619 -0.3552254444
0.6405975764 0.2097704819 -0.0138837069
0.5059100205 0.1670429327 -0.0362901534
0.3172100126 0.1857883739 -0.2974910083
0.5178613077 0.2754267409 -0.2890041455
0.5956823204 0.2208783731 -0.2684143920
0.4907413910 0.1677981312 -0.2200000000
0.3554460107 0.2947190418 -0.0086618525
0.5169966034 0.1521205186 -0.3230225615
0.6566361002 0.2065412007 -0.0350000000
0.6273259962 0.2500264482 -0.0400175332
0.5377815694 0.1383534356 -0.2301687563
0.5960462156 0.2715524764 -0.0514217796
0.5474644991 0.1775726105 -0.1616585241
0.5881778968 0.3093867308 -0.1357933446
0.5151572910 0.3005985889 -0.1772626212
0.6108342219 0.2992350978 -0.1254133041
0.4819441046 0.2870655419 -0.1901397385
0.4250370548 0.2271213826 -0.0805967276
0.5739253928 0.1774742620 -0.1487389460
0.6410685004 0.2335776432 -0.1504461711
0.4998285276 0.2470787068 -0.2612291615
0.4837418163 0.1779969392 -0.0958288168
0.6126251761 0.2355141640 -0.2600000000
0.5888520148 0.2349769398 -0.2719057247
0.6314437943 0.1641501025 -0.0404949894
0.5029908886 0.2305239396 -0.2503892694
0.6399161427 0.2437980267 -0.0431727710
0.6206537743 0.1518924761 -0.0492685168
0.6654817591 0.2009337623 -0.0850000000
0.4671623551 0.1805760867 -0.0947765127
0.4700478865 0.2195113601 -0.1625936260
0.4241541064 0.1798877713 -0.2950954170
0.5326771233 0.1690096867 -0.1180288609
0.3662277212 0.2635750821 -0.0388436301
0.5990000000 0.2040392940 -0.2374094234
0.4154101593 0.1973992052 -0.2541906354
0.5433850961 0.1700423145 -0.1329390535
0.5242963388 0.1824383597 -0.1700000000
0.4995302226 0.2922300064 -0.0039435279
0.5860506415 0.3009837452 -0.1667915196
0.5611958841 0.3124011231 -0.0874500958
0.4617930867 0.3117237640 -0.1181905900
0.4548576543 0.3453084948 -0.0357373396
0.5338944666 0.2458445259 -0.2100879445
0.3594253031 0.3058760231 -0.0280611661
0.5753538087 0.1660000000 -0.1206899547
0.5890319209 0.2788827795 -0.0642195147
0.6424644563 0.1873264057 -0.0865165780
0.4835515704 0.1793580416 -0.2335101154
0.3983389857 0.2577889065 -0.3318801397
0.5460000000 0.2159826217 -0.3407511564
0.3975238018 0.1726892815 -0.3206239359
0.5218810594 0.2782378812 -0.2734528453
0.5186613228 0.1447622838 -0.2205942906
0.3555533216 0.2694703550 -0.0539520129
0.5606280884 0.1747482363 -0.1629137271
0.5475524007 0.2570000000 -0.3048531000
0.5651751518 0.2977153585 -0.0744137738
0.4934129937 0.2916569637 -0.0031609525
0.3963029066 0.3058518790 -0.0941301380
0.5500754020 0.3102038598 -0.1694275155
0.6020962989 0.2640000000 -0.2153161231
0.6017210020 0.1410517671 -0.0210338589
0.4486790305 0.2132800176 -0.1768229747
0.4720411354 0.3309322972 -0.0254028835
0.6239050878 0.2388734504 -0.2100978854
0.5090415489 0.3007997493 -0.1773229072
0.4907845824 0.2965931110 -0.0097385606
0.3793901294 0.1724734999 -0.3098555962
0.3450125621 0.2034144507 -0.3303558440
0.5302673083 0.2377121222 -0.3473046612
0.5777281094 0.1722135157 -0.2616161152
0.6527635943 0.2483809072 -0.1474991841
0.4506481820 0.1746676118 -0.3327885721
0.5536532133 0.2725859442 -0.2310351394
0.5670124462 0.1580124462 -0.2533447865
0.5507766687 0.2217245294 -0.3304532895
0.5773994381 0.3060000000 -0.0990688986
0.6169309453 0.1737623697 -0.0597140934
0.4801770703 0.2673489994 -0.2878279190
0.6448765952 0.1607097024 -0.1117393444
0.5219265502 0.2870734498 -0.0118740729
0.4867371202 0.1537849360 -0.2276102809
0.6491805198 0.2456956414 -0.1165118355
0.5776218478 0.1720364130 -0.2235684910
0.4807726094 0.1564705449 -0.2300000000
0.4441150259 0.3226626612 -0.0438583942
0.3939463430 0.1760817026 -0.3475845998
0.6475933030 0.2232166946 -0.0172966515
0.5249016604 0.2698195356 -0.2970488390
0.5032924350 0.2993318877 -0.0684077333
0.4448437327 0.3332985096 -0.0509350782
0.6254431726 0.1742522542 -0.1950000000
0.6031370928 0.1643220327 -0.1258735202
0.4147850813 0.3090522853 -0.0882270551
0.4010581387 0.2023528170 -0.0311826984
0.5966894056 0.2384792760 -0.2676134420
0.3641955413 0.2011445946 -0.3463283792
0.6035537765 0.2835385168 -0.1703447523
0.5594724688 0.2741971411 -0.2300000000
0.5810935579 0.2745431051 -0.0549733338
0.6468786185 0.2249916130 -0.0394429165
0.4490228276 0.2729529494 -0.3599982557
0.5513475421 0.2780000000 -0.0400305057
0.3922377973 0.1735263400 -0.3294749527
0.4226592234 0.2150637491 -0.0749490444
0.5580000000 0.1453297435 -0.2391623225
0.4908164798 0.2740251146 -0.2709892065
0.5861837746 0.2715241676 -0.2086895811
0.5685782553 0.1523299291 -0.0305554885
0.5155891882 0.2465561343 -0.2349793413
0.3716727983 0.2467170939 -0.2716590021
0.5043842872 0.2914148635 -0.0095847119
0.3798380750 0.2376878580 -0.0600235755
0.6606413270 0.2606108170 -0.1256453087
0.6020805984 0.2357803393 -0.2655706038
0.5604148563 0.1579781835 -0.0474016684
0.3572986793 0.3233627478 -0.0298343908
0.5650000000 0.1534751240 -0.2569061785
0.5660795200 0.1570795200 -0.2453462444
0.6554381808 0.2143365825 -0.0705477260
0.5108404391 0.2501058837 -0.2494380732
0.5498110622 0.2812587188 -0.0525662743
0.3923721533 0.1736916170 -0.2969396262
0.4934078561 0.1633327993 -0.1897908086
0.3491022822 0.2025154454 -0.3345333495
0.6286260466 0.1744682825 -0.1328668843
0.3700181633 0.1710000000 -0.2957477735
0.4314851018 0.1772776988 -0.3463884941
0.5023948117 0.1551423924 -0.3103559809
0.6440391022 0.1863030754 -0.0920391022
0.4190799653 0.2479943786 -0.0869088124
0.6418993093 0.1981679603 -0.0800000000
0.6327193292 0.1679054913 -0.1645898736
0.5362809999 0.2606177813 -0.3052292396
0.3680510565 0.1842994769 -0.2500229604
0.5824456024 0.2316324369 -0.2799098895
0.3591699139 0.3481157752 -0.0193744243
0.3820781906 0.1707637484 -0.2744101398
0.4029821897 0.1780000000 -0.3595398476
0.6271384489 0.2403213116 -0.1969159763
0.3909291053 0.2349511549 -0.3600000000
0.4589033507 0.1996901675 -0.1133188900
0.6327100201 0.1811258306 -0.1652899799
0.4851395869 0.2863979079 -0.0488763939
0.5667765450 0.1933657566 -0.3347765450
0.4310786813 0.2758122580 -0.3448122580
0.4163430453 0.1772236425 -0.2880591063
0.5562575133 0.1406841034 -0.2121700456
0.4833743566 0.2902594979 -0.0568262768
0.4376790992 0.2418408846 -0.1486651385
0.3567370326 0.2900997170 -0.0371496138
0.5192491957 0.2815475867 -0.0444530361
0.5450770086 0.1376886362 -0.2442215906
0.5338767264 0.1711620879 -0.3557958129
0.6417883693 0.2353091726 -0.0326545466
0.5399656458 0.1426781181 -0.2867060846
0.5378328142 0.1419921764 -0.2978655537
0.5426116045 0.1815072152 -0.3535491086
0.6087160035 0.1418223353 -0.0249009589
0.5331692879 0.1682299100 -0.1023319965
0.5504197904 0.2710000000 -0.2360467793
0.4387329640 0.1730000000 -0.3393235363
0.4765198936 0.2723386796 -0.1900000000
0.4485764590 0.3076815578 -0.0698304361
0.3188252158 0.2024667131 -0.2875499366
0.6185926029 0.2765347331 -0.1402662190
0.4783639123 0.1689374101 -0.2493934796
0.5277143196 0.2640000000 -0.2333891140
0.3625540561 0.3337600249 -0.0355139816
0.4479776283 0.3018451737 -0.1227976483
0.5273757067 0.1604506799 -0.0614506799
0.5979304802 0.2016826402 -0.2427716665
0.4496576004 0.3206373647 -0.0462550610
0.5009857859 0.1487867850 -0.2280330374
0.5908153168 0.2694692202 -0.2138269494
0.6490911983 0.2394861067 -0.1142764260
0.4911501818 0.1550000000 -0.2470428439
0.4638615728 0.2187837102 -0.1328661499
0.3733422074 0.2039403399 -0.3550000000
0.5782787930 0.2874533350 -0.1886622670
0.6141680964 0.1683574893 -0.1453955519
0.6048774518 0.2148774518 -0.2595758057
0.4979748645 0.1566778720 -0.3141946800
0.6291393138 0.2348698504 -0.1992316942
0.4484317525 0.2194329817 -0.1793828741
0.4656651995 0.3076313617 -0.1383122425
0.6470054565 0.1819189928 -0.0289291708
0.5175932662 0.1434689113 -0.2382860866
0.4793905817 0.1876093285 -0.1154372243
0.6051642268 0.2220586284 -0.2620165247
0.5132029919 0.2228955860 -0.2224833551
0.5117298315 0.2840985530 -0.0445237762
0.6292911286 0.2381426679 -0.0206210199
0.5930000000 0.1969147058 -0.2403277807
0.4852915319 0.1710604637 -0.0396976813
0.6492265795 0.1712959519 -0.0932746526
0.5784986111 0.2435213580 -0.2682864829
0.3776793141 0.2487685321 -0.0183491426
0.5863473883 0.2284789175 -0.2751846850
0.5320950315 0.1942762146 -0.3579905139
0.5996301505 0.2050502509 -0.2084502666
0.5241792983 0.1447079092 -0.2746531113
0.3920303064 0.1892395761 -0.2462790931
0.5710000000 0.1625828875 -0.3006436539
0.4587399561 0.3138178607 -0.1109106963
0.4752253902 0.1800049340 -0.2388730491
0.5629974145 0.1550027642 -0.0569116411
0.5143972267 0.1508101043 -0.2014629966
0.6274008433 0.1573818585 -0.0380493080
0.6526834286 0.2046953768 -0.1124066788
0.5194347316 0.2036753957 -0.2100000000
0.3678727361 0.2079499359 -0.3491928031
0.6361237547 0.1773488713 -0.0419050029
0.3903552105 0.2466087967 -0.2509780083
0.5279069394 0.1704903386 -0.1202349316
0.6570253869 0.1992013096 -0.0324123088
0.3891780849 0.2361180360 -0.2615651411
0.5429917523 0.1568960732 -0.0508961417
0.5132308756 0.1480000000 -0.2199270676
0.5225451512 0.1500000000 -0.2910106069
0.4339621795 0.2420090502 -0.2572265554
0.6358197261 0.1773522711 -0.1551527245
0.4879224050 0.2769189679 -0.2658361976
0.4717142901 0.2551824410 -0.3037779882
0.4238271818 0.2257023976 -0.0894760165
0.6463790173 0.2654768426 -0.1200100056
0.5097623883 0.1530434588 -0.3117639826
0.6370000000 0.2015789389 -0.1429588030
0.4225303522 0.2929068913 -0.1417250067
0.4290000000 0.2430002409 -0.1421948972
0.4152836454 0.3116517727 -0.0766625983
0.6257072617 0.1602674093 -0.0280569580
0.4588735023 0.2273239102 -0.1200265442
0.4038889160 0.2916384533 -0.1500000000
0.4473214157 0.3222936074 -0.0552771712
0.6155580487 0.2450914852 -0.2359300812
0.6572259052 0.2489081274 -0.1368485695
0.3596273662 0.2459171072 -0.2350000000
0.4294052493 0.2264315805 -0.2484338502
0.4619215425 0.1842716061 -0.0937689842
0.5945256050 0.1532711233 -0.1781841095
0.6471479582 0.2221164212 -0.1448150522
0.5138396328 0.3189116132 -0.1372790329
0.6402657637 0.2491674500 -0.0500055573
0.5571804092 0.3180000000 -0.1422553030
0.6371509060 0.1958158535 -0.1514237526
0.5269447442 0.1503600925 -0.3259002313
0.4029858751 0.1861295612 -0.2350000000
0.5771499626 0.2498810677 -0.2661108982
0.4831159308 0.1676057039 -0.2423550865
0.5646151458 0.3151095242 -0.1224769727
0.6407789742 0.1982634884 -0.0926962953
0.3686259823 0.2736926329 -0.0317219762
0.6560198839 0.2290844773 -0.1782734970
0.6267622507 0.1659136064 -0.0161819312
0.5778935115 0.3128622174 -0.1223591028
0.3566454268 0.3146580898 -0.0288853593
0.5918950435 0.1933425653 -0.2512674857
0.6313163189 0.1587051744 -0.0205899404
0.4899845144 0.3057803440 -0.1677391373
0.6541609399 0.2540942254 -0.1375757211
0.6291016280 0.2605919834 -0.0953058613
0.4690384940 0.1925518326 -0.2490399729
0.6121172821 0.1516363653 -0.0413313716
0.4856342871 0.2663896917 -0.2985486472
0.4449021600 0.1756681133 -0.3246958744
0.4959036771 0.2606135035 -0.2724817803
0.5437368549 0.1411915883 -0.2956137513
0.6164357132 0.2816901807 -0.1433351538
0.5008955305 0.3183131512 -0.1470839486
0.6508962761 0.2222034771 -0.0598876351
0.4884260892 0.2674158770 -0.2806502728
0.5884118817 0.2741448861 -0.2037026935
0.6339616568 0.1542123090 -0.0667063601
0.5792449523 0.3109039055 -0.1548398425
0.4079555253 0.2592979802 -0.3344292418
0.5321507346 0.1700776492 -0.0923058771
0.5392032854 0.1657276340 -0.1786978785
0.3844011996 0.2359874426 -0.3585562220
0.5295646557 0.1520000000 -0.3312121105
0.4924272913 0.2717572488 -0.2931273018
0.6139708556 0.2634342774 -0.0544314166
0.5960244572 0.3040252049 -0.1257356199
0.4526292416 0.3001697295 -0.1306798737
0.6484875518 0.2547902748 -0.1459369584
0.5986788565 0.2124876391 -0.2676440962
0.5516477823 0.2727775939 -0.2420683577
0.5319069580 0.1637218412 -0.0647218412
0.6009089273 0.1693711773 -0.1335994768
0.4843626336 0.2624770167 -0.3155962709
0.3894530460 0.1744663296 -0.3182009509
0.3902440476 0.2168587047 -0.3596220238
0.6177508326 0.2297794148 -0.2401429109
0.4116066449 0.1729055344 -0.3281894497
0.5457920833 0.3182935288 -0.0947503884
0.5056708985 0.1591181148 -0.3334410242
0.5511244478 0.1576736345 -0.0339331809
0.3725952921 0.2394283841 -0.0507703250
0.5354136981 0.2784066274 -0.0505808962
0.4299740701 0.3399100216 -0.0645129650
0.6244650748 0.2350051744 -0.2021156717
0.4325744117 0.3102302288 -0.0688558062
0.4862189442 0.1928061966 -0.1784702308
0.3774521121 0.1706487823 -0.2856149789
0.4833374255 0.2666601362 -0.2775146329
0.6538696990 0.2296012380 -0.0677115157
0.5775578033 0.2155719048 -0.2909296722
0.4856590730 0.1590799786 -0.2974150651
0.5620594735 0.3164035209 -0.1518268263
0.5243374033 0.1643123829 -0.0367736976
0.5835074455 0.1727152616 -0.1532661519
0.4630885441 0.3395299262 -0.0364322082
0.4275010464 0.2618720829 -0.2783209937
0.6141618515 0.2889458664 -0.1242736277
0.4159315713 0.2179784074 -0.2300000000
0.6419697722 0.2240937796 -0.0134249419
0.4930202545 0.1752276776 -0.1062514771
0.4951474734 0.3166021355 -0.1474244368
0.4313973539 0.2426668430 -0.2513940296
0.5918368890 0.1969975926 -0.2770862039
0.4805764343 0.1620000000 -0.2966951241
0.6096214418 0.2222160813 -0.2113741281
0.5581796757 0.2055820967 -0.3290834668
0.6364149683 0.1669098932 -0.0574000543
0.4937441273 0.1671192083 -0.0186239079
0.4853914062 0.1553690716 -0.2584249773
0.6334554192 0.2611054093 -0.1096498360
0.6142070906 0.1697109677 -0.1310819418
0.3496212631 0.2945463707 -0.0546820116
0.4653853504 0.1730209566 -0.0435727364
0.4969355005 0.1653400044 -0.2225537496
0.5289301426 0.1885202871 -0.1510256127
0.4469581023 0.2237497216 -0.1150000000
0.4315585437 0.1730000000 -0.3255926443
0.5250457361 0.2577092654 -0.3194738747
0.6140959562 0.2847878983 -0.1176614375
0.5335017032 0.1642463842 -0.0829494756
0.4047430003 0.2869334310 -0.1470555963
0.5227018326 0.1550000000 -0.3388891464
0.6002007158 0.3029609217 -0.1312747457
0.5559951086 0.3164392970 -0.1026093239
0.3807844225 0.2370024670 -0.0193025543
0.5114075334 0.3009186361 -0.1837783191
0.4130436758 0.3351654848 -0.0482703356
0.4752117519 0.3270076313 -0.0200000000
0.3888236570 0.2110000000 -0.0130284947
0.6343325589 0.2034850987 -0.0083064829
0.6486829559 0.2586045595 -0.1188664307
0.4736074247 0.1907529786 -0.2567089824
0.3545025328 0.3330763789 -0.0226333021
0.4691634240 0.1646446051 -0.2926372901
0.3806868380 0.1711538030 -0.2906496386
0.3532573311 0.3335696750 -0.0398463125
0.4662810050 0.3388664127 -0.0296505742
0.5319612829 0.1434481772 -0.2962104176
0.4016720054 0.2023629581 -0.0250947370
0.4693275372 0.1760000000 -0.3362773639
0.4409206456 0.2419008038 -0.1334655906
0.6239827179 0.1631712276 -0.1848237063
0.4015018642 0.2455453914 -0.0738424729
0.6610077198 0.1895199679 -0.0850762166
0.3660783133 0.3369954195 -0.0251343393
0.5230703273 0.1428127273 -0.2398538183
0.4799017183 0.3150000000 -0.1492665212
0.4893450718 0.2623706867 -0.3090732833
0.4011790395 0.1999988447 -0.0182038287
0.6043638326 0.2678874876 -0.0241939747
0.3340295254 0.1749009271 -0.2899304526
0.3594205349 0.2480388556 -0.0452752850
0.5093718430 0.2240532085 -0.2285066414
0.4443677182 0.1921037817 -0.0801106713
0.6155464880 0.2805409038 -0.1136694137
0.3792778107 0.2452226175 -0.0251116052
0.5765377979 0.2778924566 -0.0356988888
0.4802128088 0.1716819545 -0.0223162794
0.4713022855 0.3014157051 -0.0631006145
0.6254041354 0.2682917401 -0.0912731087
0.4122660004 0.2396903062 -0.0782795467
0.5683607078 0.2710000000 -0.2467215200
0.4098637640 0.2932671773 -0.1496946572
0.5560046324 0.1404359141 -0.3115137135
0.5890455620 0.3093449461 -0.1263189707
0.5782477331 0.2742014250 -0.0469910278
0.4341550622 0.2969472908 -0.1408140461
0.5883834910 0.2804303936 -0.1850000000
0.3498906414 0.2139278515 -0.3385311066
0.4252214370 0.2548948771 -0.1161563060
0.4076586160 0.2685306224 -0.3254693776
0.6275869549 0.1626128953 -0.1484759577
0.4770000236 0.3064302283 -0.1331068076
0.4111559009 0.2968222779 -0.1449844135
0.6399486537 0.1836724086 -0.1624730727
0.5843931764 0.2728267738 -0.0451240468
0.3915174003 0.1768072419 -0.2608519700
0.5141441998 0.2934070597 -0.1989903630
0.3640890439 0.2872416633 -0.0235078646
0.5720679914 0.3040000000 -0.1654558671
0.5293726913 0.1482500246 -0.3206250615
0.5269360903 0.1470639097 -0.2947218987
0.4615011500 0.3425343030 -0.0278520376
0.5445581093 0.1387307594 -0.3031719843
0.5548845854 0.1781647185 -0.1505047341
0.5997585896 0.2705082370 -0.0404014062
0.6239814453 0.1508418800 -0.0346373328
0.4909533580 0.1768337328 -0.0905893152
0.5113503778 0.1960070272 -0.1471832367
0.5101202892 0.3122564838 -0.1653798114
0.3581488463 0.2967456098 -0.0350000000
0.6128482909 0.2245093496 -0.2233800373
0.4985754787 0.2869088094 -0.0362201820
0.4583532412 0.3529157747 -0.0188210452
0.6028226694 0.2985823889 -0.1375678155
0.5343374297 0.1852971627 -0.1491669062
0.4599585187 0.3058521369 -0.1303684552
0.6294732486 0.1502078373 -0.0225445856
0.5038131135 0.2945959544 -0.0639782702
0.6516903940 0.1943747986 -0.1004988616
0.5870370418 0.2594272599 -0.2571653716
0.6371908059 0.2498521367 -0.0451628761
0.5785875791 0.3145771597 -0.1276340693
0.5523509072 0.2693939614 -0.2151048478
0.5242726162 0.1900000000 -0.1590218062
0.4936264119 0.1519662690 -0.2400843275
0.6090193122 0.2588014475 -0.0084344196
0.4744386710 0.1860681859 -0.2410946489
0.4978961740 0.1554951090 -0.2993830502
0.6437968521 0.1634267011 -0.0988484779
0.4574960616 0.1933632817 -0.0904169680
0.6020000000 0.2116614092 -0.2084947550
0.6444412338 0.2085342521 -0.1722556036
0.3994366466 0.2867517562 -0.1436972055
0.6276209806 0.2604956865 -0.1784530173
0.6498005224 0.2173513320 -0.0184002612
0.4291812477 0.2457271254 -0.1088593578
0.4814647906 0.2122173211 -0.2050000000
0.5521541752 0.2118557599 -0.3380847772
0.6244605951 0.1632756955 -0.1657906156
0.5343862951 0.2593496344 -0.3106601762
0.3875653774 0.2825805658 -0.0786502760
0.6228210613 0.2388737742 -0.2193743852
0.4731722239 0.3057162705 -0.0718251408
0.4793684719 0.2950943255 -0.0617190697
0.5775784109 0.1719640181 -0.2445796947
0.6241456227 0.2542988258 -0.0311717821
0.5817079924 0.1828670989 -0.3015622624
0.3614242265 0.2378398657 -0.2588692133
0.5868254018 0.1863491963 -0.2135768882
0.4457229259 0.3294100582 -0.0608859752
0.6180000000 0.2581414337 -0.1858006792
0.5271735947 0.1814990288 -0.3599035585
0.5760334299 0.2317266558 -0.3053998572
0.6297407807 0.2665230293 -0.1049954093
0.4397371936 0.2668790274 -0.1652382999
0.5625111388 0.1569576754 -0.0388100194
0.5229539194 0.1900000000 -0.1457837597
0.3735515203 0.2488704902 -0.2335596707
0.5456712294 0.2830730066 -0.0572471523
0.3754222263 0.2437472854 -0.0582446887
0.5745780428 0.1591189051 -0.0450000000
0.5876447588 0.1869671383 -0.2630621080
0.4175466156 0.2433195703 -0.0827250926
0.6264303556 0.1725533463 -0.1396107006
0.4046394546 0.1720962119 -0.3292451589
0.6236996039 0.2413495857 -0.2255006601
0.4556750184 0.1974680465 -0.0861610613
0.6555234071 0.2287537193 -0.1343253646
0.5870000000 0.1862178648 -0.2855968463
0.4990941686 0.1701163926 -0.0353217260
0.3602325716 0.2666763572 -0.0421283960
0.4590353768 0.1899098382 -0.0946658876
0.4366612891 0.1892034918 -0.0489244985
0.3802482250 0.2520000000 -0.2921247444
0.6503500091 0.2405789651 -0.1332078001
0.6399967043 0.2583945080 -0.1088466415
0.4792973852 0.1730000000 -0.0675354701
0.6332670214 0.1767730502 -0.1827225178
0.3557793301 0.3112895490 -0.0103424292
0.4466423112 0.1746423112 -0.3371854342
0.3284666403 0.1760000000 -0.2949645926
0.3544128834 0.1857289495 -0.3450000000
0.4706723322 0.2043613042 -0.1752206192
0.5717646792 0.2996037973 -0.1793362465
0.3584233043 0.3276056508 -0.0202007981
0.4231880833 0.1731155043 -0.3368947630
0.5406570981 0.1411293256 -0.2737317722
0.4068607744 0.1720555570 -0.3378692062
0.5184124287 0.2526896640 -0.2391073770
0.4122784489 0.1721570433 -0.2746737150
0.6224278346 0.2494888283 -0.0052441330
0.4015441803 0.2157442716 -0.0650396834
0.5991085451 0.1450894112 -0.0281850232
0.6248218070 0.1658511784 -0.0314693942
0.3449917676 0.3286068676 -0.0145979309
0.5775865190 0.2972280085 -0.1773956646
0.4319614136 0.2897220716 -0.1495513643
0.3579249908 0.3188418109 -0.0234217593
0.4314773409 0.2443849467 -0.1186933521
0.3762851410 0.2495791063 -0.2735301734
0.6250632977 0.1784942458 -0.0528819408
0.5665286572 0.1575286572 -0.2138992782
0.4093782525 0.1744720042 -0.2635748717
0.4993929081 0.1554649713 -0.3049509301
0.4873667203 0.1559679261 -0.2512158356
0.4296867092 0.1947961295 -0.0387481741
0.4656773341 0.3081279964 -0.1211966682
0.3795735887 0.2386089952 -0.0264634772
0.4799181313 0.1694231015 -0.3347091482
0.5967942384 0.2643603084 -0.2197424220
0.3598602548 0.2050830981 -0.3434301274
0.4745766571 0.1780886565 -0.0907868666
0.5477511236 0.3134436059 -0.1632650489
0.4188349112 0.3120322380 -0.0918839889
0.3833853888 0.2542243648 -0.2673658133
0.6028128043 0.2095418695 -0.2373330220
0.6453619534 0.2274091734 -0.1412530112
0.3555549736 0.2961380475 -0.0146408270
0.4788172732 0.2877695849 -0.0406294900
0.4408531718 0.1730000000 -0.3327996247
0.3308371076 0.2147181249 -0.2332400797
0.4908837959 0.2660142700 -0.3500356751
0.5212236296 0.2615831703 -0.2423587511
0.5958932596 0.2747260724 -0.2003454999
0.5586603124 0.1700332255 -0.1250056085
0.4476398294 0.1802812500 -0.0242696031
0.3697283908 0.2362334762 -0.2485338976
0.6146636076 0.2869122246 -0.1450877754
0.3951724099 0.2260017327 -0.0583693482
0.5735520238 0.3077726269 -0.1127463550
0.3694206005 0.2573195831 -0.0052709641
0.4876782954 0.2656528668 -0.3195660834
0.4760613482 0.1725023413 -0.2542953881
0.5615107261 0.1482660891 -0.2149811285
0.5218309343 0.1701772486 -0.1132645039
0.5815686013 0.2118404276 -0.3094887528
0.6100676803 0.2204959133 -0.2339906547
0.5889337698 0.2970863019 -0.1533926648
0.4697175517 0.1868323318 -0.2461488339
0.6009630709 0.2640000000 -0.2236185624
0.4988266053 0.3008938121 -0.1940672068
0.6316564902 0.1829312640 -0.1499018020
0.5007530442 0.2848544591 -0.0419031071
0.4908410078 0.1972787032 -0.1722009271
0.4857995210 0.2949734433 -0.0625230715
0.5558895472 0.3002771083 -0.1881927707
0.6209546995 0.1555868283 -0.0335122829
0.5513172474 0.2918780860 -0.2007556875
0.4940620983 0.2007818213 -0.2418510562
0.3637194276 0.2455238062 -0.2794004770
0.3276450025 0.1935261818 -0.3096745114
0.5028616762 0.2873813422 -0.0547626844
0.3597264575 0.2400309099 -0.2798178629
0.4611323439 0.2204673744 -0.1180412695
0.4544102887 0.3189561942 -0.0350658652
0.6259395770 0.2743649293 -0.0947863162
0.5279516336 0.1437909537 -0.2034494702
0.4747978066 0.1727164586 -0.3345248753
0.4447084235 0.3096299490 -0.1138406071
0.5564646776 0.2780000000 -0.0338555184
0.6173198481 0.2290931309 -0.2246024019
0.4220822725 0.1787476374 -0.3012618130
0.3572612701 0.2147838103 -0.2473873347
0.4390569286 0.3125891936 -0.0739729840
0.5017453793 0.2060967904 -0.1651682093
0.4198734904 0.2237230750 -0.0745289707
0.4095535939 0.2005889985 -0.2372590946
0.5579901874 0.1765957738 -0.1571137538
0.3634874354 0.2470000000 -0.2305476543
0.4981324885 0.1701687699 -0.0482137523
0.4212283972 0.2252308856 -0.2317114970
0.3723793687 0.2424277659 -0.2590462765
0.3590009433 0.3283129077 -0.0650005896
0.6107967866 0.1604402430 -0.1636446994
0.5738282153 0.2328103609 -0.2906172516
0.6623355221 0.1960748520 -0.0858453179
0.5283352047 0.1887142890 -0.1626028880
0.6095354575 0.1586149196 -0.1133922120
0.5354756787 0.1570000000 -0.0234459237
0.6340855680 0.2653278874 -0.1154260357
0.4733858471 0.1815575026 -0.2480221352
0.5281179468 0.2435281306 -0.2145412495
0.5354821695 0.2287558819 -0.3487296832
0.5937505868 0.2683703176 -0.0607234375
0.4890068115 0.1737127462 -0.0814722794
0.5631941405 0.1505921873 -0.2258505560
0.4772387181 0.3218128486 -0.0206946727
0.3491184539 0.1957089749 -0.3286926219
0.4037796400 0.2116153440 -0.2600000000
0.5800000000 0.1789742675 -0.2191443207
0.3594566250 0.3376741838 -0.0135325552
0.4300000000 0.2189345942 -0.2456282145
0.5171572944 0.3182995858 -0.1444172302
0.5506373499 0.3153087433 -0.1092115890
0.3910707888 0.2158161766 -0.0363332416
0.5076439833 0.2354948977 -0.2372600279
0.5499879105 0.1360000000 -0.2467458778
0.3551870225 0.3282142385 -0.0285519886
0.5862127527 0.1890202509 -0.3009625089
0.6472331045 0.2162763815 -0.0459186014
0.5883587361 0.2706607276 -0.0119733213
0.5159937616 0.1846490688 -0.1715093486
0.6015498333 0.2082497221 -0.2134107871
0.3713076768 0.2522724151 -0.0103845960
0.4208451532 0.2544394117 -0.2981469583
0.6460586314 0.2410363469 -0.1374706555
0.5216409040 0.1466501295 -0.2020605369
0.5828734196 0.1640776712 -0.1683740910
0.4447977721 0.1785833834 -0.0545454314
0.4343991296 0.3151551117 -0.0773231853
0.4689010443 0.3394291077 -0.0233492400
0.5286707102 0.1699830049 -0.0723537855
0.6584354143 0.2423713033 -0.1750000000
0.5235513764 0.1669329928 -0.0671062656
0.3546886917 0.3018189421 -0.0371455179
0.4569964153 0.2113969102 -0.1773969102
0.5979216618 0.2023420576 -0.2314303001
0.4613229706 0.1832435787 -0.0874391714
0.4860294237 0.1902055019 -0.2422686273
0.6538290236 0.2081873108 -0.0685362795
0.4510534036 0.2969713047 -0.1435556999
0.4363179960 0.2518729087 -0.2616024057
0.4083147293 0.2077726763 -0.2600000000
0.4380140650 0.1832389915 -0.0601602638
0.5183020959 0.1637784445 -0.0634817791
0.6400461874 0.1627973734 -0.0687187156
0.6042239642 0.2129090366 -0.2296626173
0.6080000000 0.2195804857 -0.2559543256
0.5941593331 0.1639221150 -0.1126515727
