0.4032644693 0.1767670038 -0.3588878026
0.4738131539 0.1492034664 -0.2244731043
0.4705534964 0.3544226854 -0.0199965879
0.5889161703 0.1503002964 -0.2712345649
0.5458015849 0.2056777289 0.0000000000
0.3399412930 0.2787335576 -0.2182172664
0.4378111977 0.3259875357 -0.1933702390
0.4817018578 0.3483970460 -0.0849999030
0.4941318158 0.1477174539 -0.2332731010
0.3968782384 0.3232222922 -0.2044301906
0.4287522579 0.1605437570 -0.2014346919
0.5486661899 0.3111455586 -0.0318487215
0.6237721983 0.2562415264 -0.0198585333
0.3781045733 0.1601651675 -0.3176467056
0.5655000219 0.2188397537 -0.3289590468
0.4070714960 0.3659450912 -0.0319300544
0.5226139743 0.2794620163 -0.2728190138
0.4795535632 0.1475679131 -0.2432028144
0.6572083822 0.2517695368 -0.0769686702
0.3426265347 0.2116605057 -0.1655310320
0.4413881931 0.2088588533 -0.3600000143
0.4655979415 0.2868719068 -0.3147668415
0.5338258684 0.1851584662 -0.0006477998
0.3444183554 0.1642239343 -0.2713206569
0.3467511807 0.2632011464 -0.0413585060
0.4346692791 0.1532490442 -0.2638526648
0.4313090274 0.3294301196 -0.1868421908
0.6440134363 0.1455086974 -0.1060750358
0.3703001424 0.2177189758 -0.0714553909
0.3842020782 0.2989072394 -0.2718957159
0.4988296568 0.1638631056 -0.0058119948
0.5741197689 0.1776398324 -0.3348459340
0.5811800450 0.2288649648 -0.3059782607
0.6560635201 0.1723088049 -0.1692335350
0.3217424276 0.2645670706 -0.2057339815
0.3694074169 0.2906764125 -0.0034059378
0.4155564654 0.2942609109 0.0000000000
0.5743913783 0.2987150131 -0.0398410653
0.4694864322 0.1693772600 -0.0505583609
0.5250358239 0.3255881040 -0.1412434590
0.3926906713 0.2233696637 -0.3600000143
0.6705169925 0.2374705136 -0.0800616274
0.3922548929 0.2919291025 -0.3048132373
0.5690901183 0.1358946170 -0.2220270652
0.3153572736 0.2113914930 -0.2838975047
0.3951022168 0.3309734346 -0.1763878018
0.3584548925 0.1881365134 -0.1953648540
0.5559236858 0.2791541517 -0.0038395941
0.4827715941 0.2111280057 -0.3600000143
0.6056261752 0.1711823167 -0.0038516082
0.4106465407 0.3599403731 -0.0889523429
0.3793918973 0.3648629158 -0.0166851367
0.5467686873 0.2998860361 -0.2079455259
0.6370795714 0.2780280680 -0.0905382924
0.4932558982 0.3146539688 -0.1873706925
0.5875287019 0.1810878047 -0.3130773274
0.5653349089 0.1360000074 -0.2460850754
0.3362336077 0.2688671853 -0.0705543465
0.4328403244 0.1814464958 -0.0435247405
0.3193031011 0.2832419255 -0.1043118523
0.6438293681 0.1906572312 -0.2084719663
0.5621200969 0.2951133658 -0.0146393177
0.5863862805 0.1843862849 -0.2303788782
0.6681216468 0.1776743890 -0.1032572792
0.3512180481 0.3021107523 -0.0095396435
0.5332598322 0.1446831501 -0.3319660212
0.4095933305 0.3026067557 0.0000000000
0.4188482569 0.1623529935 -0.1969011929
0.5990735784 0.2734572102 -0.2227513599
0.4956145469 0.2490094111 0.0000000000
0.5884441929 0.3079153596 -0.1646828036
0.4528157039 0.3031323646 -0.2594554816
0.3673321527 0.2317604907 -0.0247164379
0.5325464642 0.2653011523 -0.3059095530
0.4365317956 0.2906531937 -0.3153070806
0.4956726228 0.3103710083 -0.2000738461
0.3511945706 0.1940706303 -0.1892248817
0.5030000210 0.2309520754 -0.2498931525
0.3269608823 0.2544876803 -0.1324664728
0.4681397049 0.2287462804 0.0000000000
0.5391945018 0.2784790541 -0.2663859228
0.3626424570 0.2452137376 -0.3390699194
0.3527340172 0.2924855417 -0.2187875497
0.5613647695 0.1385102828 -0.1102295058
0.6726701898 0.2011819775 -0.1113986921
0.4266065284 0.1585812486 -0.2222367909
0.4079542167 0.3674969332 -0.0429099302
0.4561698998 0.1500356181 -0.2487699102
0.6002813078 0.3032708393 -0.1587217720
0.3371608330 0.2207580088 -0.1623871259
0.5569952744 0.1360000074 -0.2904141934
0.4944740858 0.1645150396 -0.0411884700
0.3809563271 0.2124417071 -0.0509400369
0.4114636950 0.2027971187 -0.2300000042
0.3448691679 0.2716288139 -0.2452587525
0.5900299836 0.2449173049 -0.2786323222
0.4847289162 0.1553860008 -0.1730766696
0.5461181475 0.1360000074 -0.2785582220
0.5596433539 0.3108250917 -0.1763534062
0.5608916019 0.2697955754 -0.2715722633
0.4206474606 0.2201861825 0.0000000000
0.4012746814 0.1854313592 -0.1121983969
0.3593348984 0.1632209222 -0.2622171372
0.6621693617 0.2520610349 -0.1396749844
0.5374201353 0.1381608414 -0.3085469559
0.3769495795 0.1927842729 -0.1349534403
0.3518835822 0.2765961509 -0.0191816943
0.3388568469 0.1892748447 -0.2350453041
0.5783595056 0.1727244559 -0.3196180481
0.4768190008 0.2956737167 -0.2714229214
0.4177030667 0.2925486708 -0.3173369532
0.6186182922 0.1759699415 -0.0056109133
0.4738027380 0.1491409121 -0.2627589627
0.5288479267 0.1393204887 -0.3112777470
0.5670969722 0.1360000074 -0.2573237155
0.4629223216 0.3238871696 -0.0028912486
0.3241879344 0.2085166801 -0.2343532634
0.3457093190 0.2977573188 -0.0181217357
0.3211254442 0.3192827794 -0.0874365758
0.5871431080 0.2758065535 -0.0062208130
0.4183287462 0.1550073723 -0.2474883840
0.4236755019 0.3492233572 -0.1252808346
0.6461885497 0.2429727191 -0.1984664179
0.4694947131 0.3526605660 -0.0750664689
0.4881682090 0.3223449944 -0.0049999999
0.3423617188 0.3254319895 -0.1229586672
0.6417895170 0.2381109742 -0.0120802283
0.4149766216 0.2137884507 -0.2568118295
0.6324654621 0.2514592622 -0.0200556829
0.3694370847 0.2270406530 -0.0399998594
0.5602209444 0.1360000074 -0.2709503653
0.6285694099 0.1432841741 -0.0458728442
0.3862161966 0.2792523523 -0.3267401190
0.3639283153 0.1629200719 -0.3311307521
0.3422936656 0.2441620563 -0.0977849406
0.3974032225 0.1935558048 -0.0870384836
0.6144516620 0.2774542651 -0.0471296426
0.4032321647 0.3157743182 -0.2353513903
0.5478032566 0.2040527017 -0.3513919986
0.4854749116 0.1889864740 -0.3600000143
0.3357624270 0.3164608031 -0.1267239272
0.6634421881 0.2116004442 -0.1808469244
0.4250757318 0.3335514432 -0.0009624031
0.5243560581 0.1888798484 -0.0003353632
0.6416203054 0.2785395527 -0.1250558457
0.5359053231 0.1456813850 -0.1146437928
0.3326593684 0.2725440370 -0.2143492363
0.3139425756 0.2905129036 -0.1115338799
0.3166667354 0.2097425957 -0.2649879078
0.4602396457 0.2957263492 0.0000000000
0.5802162087 0.1793243405 -0.2799104990
0.6722709353 0.2015473168 -0.1201126104
0.3427646471 0.2653803291 -0.0535156720
0.5633916226 0.1508834378 -0.3193451097
0.5886223807 0.1657635502 -0.0028922202
0.4970490339 0.1465517265 -0.2526170263
0.5648039049 0.1375399181 -0.1386915904
0.4912514515 0.1548603042 -0.2491836802
0.6260257857 0.1429173003 -0.0190624382
0.4123575718 0.1738678553 -0.3566890874
0.3403626391 0.2105450143 -0.1745421078
0.4255405095 0.2874177965 -0.3350110199
0.4053720700 0.1682392988 -0.1590480911
0.4506783435 0.3571045150 -0.0095764413
0.4112722088 0.1988782556 -0.2399999946
0.5165833548 0.2874476156 -0.2642521250
0.3500624547 0.2076495777 -0.1522154714
0.5308101687 0.1558576349 -0.0436079534
0.3328903007 0.2430546841 -0.1331302123
0.4126952773 0.3424345230 -0.0018036878
0.3944900658 0.1701832764 -0.3506434139
0.4865504172 0.2498483134 0.0000000000
0.4645088480 0.2467644243 -0.3600000143
0.3979999131 0.1602737191 -0.2418333653
0.3605997088 0.2581480977 -0.3116854950
0.3227371692 0.2467514906 -0.1629823892
0.4502205724 0.1771391673 -0.3600000143
0.5746182318 0.1702060777 -0.2653285116
0.4744443539 0.3131791895 -0.2076099898
0.4486453240 0.2937149018 -0.2950474050
0.6058687929 0.3039204652 -0.1382755040
0.5826620233 0.1415767916 -0.0628567111
0.4530483120 0.2955619083 -0.2851714518
0.5237896039 0.1404934348 -0.2114880627
0.5667142437 0.2262491491 -0.3232114428
0.3999462794 0.3026535599 -0.2774374392
0.5103340828 0.3142652300 -0.1730716634
0.5852783086 0.1869174275 -0.2789378847
0.4125676934 0.2346208552 -0.3600000143
0.5506392289 0.1360000074 -0.2655676737
0.5431497396 0.1511228281 -0.0049999999
0.5999435746 0.3075063475 -0.1159470839
0.4432265551 0.3118639479 0.0000000000
0.4461685592 0.2459933093 0.0000000000
0.3453258486 0.2291557080 -0.1205113822
0.3659125540 0.2171293177 -0.0855840220
0.3254432279 0.2317161273 -0.2855487153
0.3155832364 0.3110291538 -0.0636680845
0.3452445361 0.3172190900 -0.0132284126
0.5107026849 0.1516460682 -0.1341019243
0.3352065271 0.2193334055 -0.1715106730
0.3548355500 0.3207138797 -0.1604963064
0.3939564171 0.3611663155 -0.0081935743
0.5398791097 0.3251959537 -0.0511212042
0.3485149345 0.3249450975 -0.1377827619
0.5236600428 0.2873263218 -0.2538868313
0.4671285852 0.3369921924 -0.1273520416
0.4851147985 0.1478259148 -0.2657769037
0.6219374284 0.2594107550 -0.2156987289
0.3781504696 0.1593632442 -0.2769747241
0.6477934500 0.1563392634 -0.0672311488
0.5059985302 0.2872385351 -0.0005178346
0.3531532085 0.1633761286 -0.2683996488
0.5979684724 0.3079763997 -0.1352607016
0.6485815524 0.1938289912 -0.0176189602
0.3374904052 0.3231309250 -0.1163929215
0.3336180646 0.2235648212 -0.3163316827
0.5281505346 0.2660000026 -0.2433108935
0.6092772585 0.3029447448 -0.1145447440
0.4786604862 0.1676455628 -0.0325953387
0.4959215153 0.3008153166 -0.2395450090
0.3843458252 0.3155384909 -0.2154447713
0.3398621693 0.1668499851 -0.3062100362
0.4867561827 0.1496256468 -0.3336850968
0.4087879396 0.2688020657 -0.3600000143
0.5052792403 0.1728660876 -0.3600000143
0.3628480026 0.2824581439 -0.0046517500
0.6496383058 0.2558470835 -0.1762780516
0.6649886328 0.1749192721 -0.1455425638
0.6439693334 0.2236971885 -0.0109693274
0.3322746772 0.3473736363 -0.0446288580
0.3382953736 0.2768575076 -0.0489541264
0.4647669370 0.1633484496 -0.1310992703
0.5403404418 0.1521529043 -0.0328700337
0.4761480997 0.1904342869 -0.0018822721
0.6287109916 0.2027025535 -0.2465924641
0.5927397342 0.1598026110 -0.2777655793
0.4400635461 0.1706507452 -0.0939818425
0.5980337614 0.1702128818 -0.2807617283
0.4067241781 0.1593898481 -0.3392615115
0.3531278676 0.3534429478 -0.0094690547
0.3356153605 0.2063682728 -0.1973457719
0.5148576263 0.1988531138 -0.3600000143
0.4850576246 0.3187510868 -0.1799728737
0.3473873196 0.1683022804 -0.3273331220
0.4199758432 0.2512083356 -0.3600000143
0.3325938607 0.2831921812 -0.0558882480
0.3430301760 0.3090872177 -0.0182107762
0.5123573827 0.1442780978 -0.2698560690
0.3874570726 0.3305334479 0.0000000000
0.3719976870 0.3651801561 -0.0402112239
0.3566248580 0.1833689208 -0.2183609001
0.5643196718 0.1422762336 -0.0513659313
0.4194706383 0.3107870621 -0.2557224610
0.3852404213 0.3409805501 -0.1335340222
0.4501803238 0.1694840616 -0.0923080436
0.3943520287 0.1910676374 -0.1040077442
0.6079894879 0.2146373119 0.0000000000
0.6017742923 0.3058960262 -0.1063128242
0.3587519387 0.1617508967 -0.3007841095
0.6723750815 0.2074487701 -0.0881488103
0.6600586704 0.1661820467 -0.1502625926
0.3874913000 0.1862311150 -0.1390257300
0.3185598726 0.2843008947 -0.1566896001
0.6241762238 0.1795412526 -0.2406586199
0.5514784497 0.2990166493 -0.0085530833
0.4418429922 0.1777659818 -0.0338319763
0.3621738529 0.2403108368 -0.0227967091
0.6200206627 0.1480816619 -0.2101545935
0.5590973842 0.1456308767 -0.0295481503
0.6209349883 0.2762046429 -0.0542787282
0.5325285071 0.2903972520 -0.0042979738
0.3567397424 0.2216126623 -0.1029951887
0.3789364771 0.3265136318 -0.1714916915
0.6213467895 0.1583705969 -0.2239607477
0.6005443040 0.1489784779 -0.2475081718
0.3860135480 0.2677212427 -0.3496233481
0.6320911500 0.1446918889 -0.1519710166
0.5311466650 0.2370957472 0.0000000000
0.4690297021 0.1596481504 -0.1600818118
0.4282195461 0.3044420565 -0.2748390648
0.4132501514 0.1837053052 -0.3600000143
0.6496678252 0.1761705396 -0.0337548712
0.4865107838 0.2610367668 0.0000000000
0.5353784173 0.1489279691 -0.3401304573
0.3158384162 0.2183003084 -0.2894981579
0.5098053383 0.2924381687 -0.2626171859
0.6551216033 0.1512393397 -0.1062477165
0.6172123661 0.1429645421 -0.0124971855
0.5240650401 0.2645193436 0.0000000000
0.3659534375 0.2829630556 -0.2707040124
0.5954736624 0.2865518163 -0.2045918012
0.4477179166 0.3278386692 -0.0012832626
0.4152175204 0.2638310729 0.0000000000
0.5456265417 0.1386823125 -0.1545581029
0.5618860409 0.1488290982 -0.2120696708
0.5004756459 0.1555267583 -0.1232651338
0.3701214716 0.1604458766 -0.2735223690
0.4938239742 0.3418247823 -0.0241888915
0.4325109372 0.1641237709 -0.1636791660
0.3437251839 0.2440524753 -0.3021868760
0.5583638749 0.2523551979 0.0000000000
0.3165096752 0.2303195684 -0.2235277785
0.4752061901 0.1465575101 -0.3106169612
0.5907390478 0.1560699379 -0.0045998748
0.4439671378 0.1915502046 -0.0028498916
0.3618026365 0.2244621858 -0.0820902805
0.5247169532 0.3340624847 -0.1104318683
0.5030579482 0.2044677609 0.0000000000
0.5142155606 0.1726460070 -0.3600000143
0.5938813528 0.1459061712 -0.0071845759
0.5509290842 0.1360000074 -0.2978832357
0.5172569054 0.1565204192 -0.3541165419
0.5522272880 0.1341898429 -0.2088015253
0.5912704957 0.1924057400 -0.2105575285
0.5276286073 0.2326532751 -0.3561642297
0.4627948213 0.2847979183 -0.3238629169
0.4448425228 0.2966819591 -0.2879663357
0.3209766157 0.2332536107 -0.1978315159
0.3583086628 0.2959982382 -0.2243994182
0.5357388652 0.1503837751 -0.0719473991
0.3650164817 0.3447264554 -0.0912015310
0.3209221491 0.1974350760 -0.3073065787
0.6610299170 0.1618081818 -0.1405721596
0.6076611652 0.2841098964 -0.0503828465
0.3528164686 0.2492443733 -0.3124995815
0.3740781854 0.3315877844 -0.1476649501
0.5364144528 0.3109177077 -0.0142454933
0.4416080860 0.2732343236 -0.3600000143
0.4567053582 0.2704052384 0.0000000000
0.5905881705 0.1945545189 -0.2247589576
0.4820119743 0.2912391533 -0.2876652551
0.5650941534 0.1560941592 -0.2584581390
0.3689579099 0.3108252138 -0.2125817762
0.5198075950 0.1710458092 -0.0032482795
0.4365329840 0.1531360650 -0.2382826285
0.5051237583 0.3119656234 -0.1833008175
0.6039467713 0.2119201710 -0.2196624178
0.5003042911 0.1538849489 -0.1362149904
0.5445113827 0.1374309046 -0.1741949344
0.6622039971 0.1905631439 -0.0543929630
0.5361349613 0.1940473022 0.0000000000
0.5115920138 0.1580821876 -0.0834299739
0.5750300845 0.1383419844 -0.2613767313
0.5265434195 0.2589975350 -0.3280093742
0.6285599476 0.2338529510 -0.2399008316
0.4602918157 0.3547870506 -0.0832894630
0.4826561575 0.3269881918 -0.1508412581
0.3700476737 0.2483280173 -0.0056815536
0.5333998862 0.2871296492 -0.2502448969
0.4727672868 0.1620185092 -0.1224107270
0.3735464784 0.2681913769 -0.0035588322
0.6447525918 0.2394839270 -0.0216290880
0.5535370536 0.3058501758 -0.1891082443
0.3121990830 0.2900517173 -0.1231246178
0.5394015321 0.1374652122 -0.2852203558
0.5094972450 0.2704402151 -0.3214623015
0.3511772138 0.2362201543 -0.0883320036
0.4265398524 0.1848045741 -0.0373767738
0.4393779252 0.3388987170 -0.1479266828
0.4134020918 0.1699049682 -0.1337404246
0.5497170520 0.2467962433 0.0000000000
0.3961105147 0.1586116714 -0.3320692485
0.3781774735 0.3459209869 -0.1068660485
0.3348782131 0.3521798616 -0.0363687864
0.4743291218 0.1635270672 -0.0986260863
0.6260452330 0.2254675492 -0.0026261305
0.5990117404 0.3061428066 -0.1446064364
0.4409998733 0.2544274919 0.0000000000
0.3460987357 0.2122831040 -0.3350000083
0.6176052105 0.2848632300 -0.0653955542
0.4623030479 0.3028668027 -0.2527017515
0.4746475300 0.3229020859 -0.1741770553
0.4234226573 0.3576015757 -0.0045678489
0.6174026864 0.2517130029 -0.2346749188
0.3351902784 0.3010125031 -0.1587779440
0.5931911344 0.2500700844 -0.2682944887
0.5205541014 0.2498962436 -0.3485404691
0.3370267375 0.2474226801 -0.1095055986
0.6498154819 0.2094609144 -0.0172276870
0.3393961906 0.2099642137 -0.3294754242
0.3631713825 0.2278018967 -0.3497358684
0.3942626831 0.3439041225 -0.1314230222
0.3566414398 0.3633530108 -0.0316511629
0.6709527018 0.1898898363 -0.1035913357
0.6220369986 0.1845673879 -0.2488317744
0.3231163788 0.2255953508 -0.2932726856
0.5308234192 0.3108950227 -0.1844369046
0.3953340184 0.1983617227 -0.3600000143
0.5670824902 0.2511467405 0.0000000000
0.3734610965 0.2196906515 -0.0522010094
0.3673548644 0.1834286748 -0.1946524836
0.4244201883 0.2898182408 0.0000000000
0.6724907910 0.2194793030 -0.1254924714
0.5867296576 0.1608832919 -0.2900157111
0.4657690147 0.1477849871 -0.3097591788
0.6317523624 0.2156833910 -0.0037504719
0.5781426172 0.2042250693 0.0000000000
0.4585593752 0.1482244049 -0.3010232985
0.3745080532 0.1640209863 -0.2361148393
0.3323951982 0.3071192320 -0.1389483351
0.6398663674 0.2779294039 -0.1363804209
0.5333719559 0.1993957176 -0.3576156628
0.6637827392 0.1841742458 -0.1580018715
0.3748354351 0.1589564417 -0.2891829567
0.3620161468 0.1734133382 -0.2213784761
0.6239025908 0.2334313701 -0.2488118239
0.5912446334 0.2736018273 -0.2327261971
0.4010229290 0.1679514816 -0.1670710754
0.5276272173 0.3106383510 -0.0089576412
0.6583469818 0.2570282529 -0.1452575363
0.3585184364 0.2666634744 -0.2883380721
0.4198536369 0.1830425103 -0.0814623807
0.5746381869 0.3168722209 -0.1419092671
0.6604384564 0.2143415869 -0.0340493508
0.4849757002 0.2066655913 0.0000000000
0.5187175020 0.3193908879 -0.1562491118
0.6010056531 0.1417891507 -0.2118384375
0.5192026358 0.1584003106 -0.0689996559
0.6700123719 0.2058608375 -0.0777919187
0.3269554769 0.3383779481 -0.0365074890
0.6532722867 0.1746800482 -0.0503459003
0.3860771752 0.3223301092 -0.1957988267
0.5820808047 0.1436005147 -0.0099844694
0.5221206675 0.1537632531 -0.0998985563
0.5001028418 0.1631114007 -0.0309443143
0.4481010093 0.3482398935 -0.1089188208
0.3892104694 0.2058240456 -0.0429427748
0.3199391187 0.2580767972 -0.2156603607
0.4367235153 0.3627858901 -0.0183950601
0.5785140120 0.3052913340 -0.0603505343
0.5942525175 0.1377602689 -0.1798260997
0.5731712667 0.2163622345 -0.3229716384
0.4738845911 0.2837129944 -0.3191274078
0.5707887263 0.2932431665 -0.0225355906
0.4652539676 0.1701259807 -0.0604958234
0.4083185647 0.2808244826 -0.3569386536
0.3448003153 0.2125917844 -0.1571752481
0.4216365777 0.1646755085 -0.1719762706
0.6589162127 0.2404819334 -0.0569105787
0.4107572408 0.1812610220 -0.1087246994
0.5329047607 0.1864483970 -0.3578911703
0.5033423276 0.1641877526 -0.3587391989
0.5651385888 0.1403729658 -0.2979266559
0.4439829654 0.3051466870 -0.2596967879
0.5644076506 0.3177917380 -0.0894026723
0.4173818048 0.1546944946 -0.3153475894
0.3557895356 0.3168321261 -0.1733262501
0.6373056956 0.1463430713 -0.0483882701
0.5526560563 0.1557304131 -0.3336303284
0.5059882890 0.1551914159 -0.1143915927
0.4550774811 0.3196614838 -0.0010206135
0.5770000219 0.1726715143 -0.2490263300
0.4754295513 0.2488399690 0.0000000000
0.3845979330 0.2719272227 -0.0017637522
0.3561521118 0.2373559634 -0.0713209598
0.4827905508 0.2789489639 -0.3284191111
0.4207328838 0.1878145673 -0.0494194433
0.4317077537 0.3484843213 -0.1213223881
0.5293875794 0.2526911788 -0.3342836393
0.6023037137 0.1421937197 -0.0736346383
0.5364996804 0.2732237545 -0.2842688376
0.6037298839 0.1396141441 -0.1792403300
0.4136298129 0.1916497785 -0.0322116466
0.5951145004 0.1381692766 -0.1609116198
0.4893818344 0.1469700638 -0.2436181339
0.5489268786 0.2845801787 -0.0045618821
0.5741210531 0.1392304253 -0.1093681508
0.4668562997 0.1699514425 -0.0411067434
0.4732543361 0.2700647904 0.0000000000
0.5519739885 0.1604548317 -0.0034183908
0.4153022050 0.1681313138 -0.1478089673
0.6137077928 0.1445782826 -0.2026022166
0.6488422151 0.1478585884 -0.0975905435
0.4731120648 0.2418239032 -0.3600000143
0.4956550935 0.2847371732 -0.2992213900
0.5807107123 0.2264326942 0.0000000000
0.3496973145 0.3310925500 -0.1207088282
0.3837866079 0.3049998827 -0.2498416152
0.5896061575 0.1395240070 -0.1224586542
0.5248576944 0.2453279756 0.0000000000
0.3125668867 0.2787781044 -0.1439611152
0.5790626398 0.3152697960 -0.1122899720
0.4733139760 0.2878440850 0.0000000000
0.5054664704 0.1480086761 -0.1778578234
0.5983915537 0.1407027148 -0.1050019270
0.4201507992 0.1870954970 -0.0640384420
0.4705790157 0.1569331096 -0.1832926391
0.3578606968 0.1948204745 -0.1707856639
0.5749485022 0.1419703048 -0.0429512670
0.4018005962 0.3184475938 -0.2249792549
0.5779004605 0.2374577685 0.0000000000
0.4017383414 0.2612752569 0.0000000000
0.5021313661 0.1857712879 -0.3600000143
0.3624951057 0.2730746507 -0.2838951835
0.4727875924 0.3325228851 -0.1336137029
0.5258082259 0.1407310520 -0.2437465289
0.3511079211 0.3073634093 -0.1827586213
0.3947658468 0.1711342784 -0.1599228649
0.5989551690 0.1387966324 -0.1523439527
0.4084789608 0.3514527389 -0.0032193190
0.3157082699 0.2692550610 -0.1472995267
0.6205073876 0.1421076335 -0.1175354156
0.6434092162 0.1486702345 -0.1576055919
0.5721871613 0.1384193654 -0.1267935200
0.3448417521 0.3053760440 -0.1722094430
0.6231328641 0.1664549409 -0.0087999794
0.6517212737 0.1476522311 -0.1150977533
0.3595148774 0.2227571914 -0.0924220092
0.4113828318 0.2460797737 -0.3600000143
0.4116941417 0.1853026969 -0.0899487913
0.4156795592 0.3155763655 -0.2394592077
0.5389702142 0.2367688289 -0.3418105228
0.5064727429 0.2978556046 -0.2469134580
0.3746694210 0.1770619560 -0.1924507568
0.5957563486 0.2225837229 0.0000000000
0.3903106610 0.2012233064 -0.0708126623
0.5767939033 0.2718304384 -0.0037248436
0.5597330668 0.1442624465 -0.3140706611
0.5939929083 0.1425396337 -0.2480472024
0.4895631763 0.3093798504 -0.0031962645
0.3862814709 0.3468183266 -0.1146235316
0.6168565735 0.2574286780 -0.2268887649
0.5703575140 0.1353686789 -0.2065452268
0.3798129951 0.1856340847 -0.1582852532
0.4664371183 0.1652312253 -0.1017553048
0.5669791208 0.1713189100 -0.0012401563
0.4231593717 0.3439170217 -0.1433172708
0.3742623381 0.3487895530 -0.0916581759
0.5972605910 0.2524068682 -0.2608899242
0.3778949749 0.3147025038 -0.2094341368
0.3270231321 0.1992444560 -0.2391355034
0.3731848961 0.1985273179 -0.1205976125
0.4877407791 0.3136037659 -0.1954184292
0.4975392310 0.1561817528 -0.3511056379
0.5264015797 0.1481273682 -0.1362957422
0.5090246610 0.3388307171 -0.0593310824
0.5102748407 0.2350682623 0.0000000000
0.5858845205 0.1535729834 -0.2824094218
0.4190066752 0.1579504241 -0.2374396524
0.3334437675 0.2607185422 -0.0966404723
0.4334813028 0.2831691062 -0.3515061629
0.3663522909 0.2324991830 -0.0336846424
0.5990390587 0.2018379608 -0.3015462605
0.5516024716 0.2552850793 -0.3051791914
0.5575038311 0.1522519162 -0.2220727402
0.5018167276 0.3342487062 -0.0183375207
0.3278610191 0.2765303532 -0.0861663374
0.3502363145 0.1703225190 -0.2479592051
0.5382354475 0.3033359039 -0.0080900640
0.6391564654 0.2747652866 -0.1532191056
0.3809184232 0.3497312997 -0.0984757785
0.5141402273 0.3377560281 -0.1018306572
0.5560613538 0.1729468755 -0.0013012468
0.3423609252 0.2833806466 -0.0328009848
0.3682128288 0.3382147838 -0.1172599260
0.4492068593 0.3305409161 -0.1685862885
0.4371132321 0.1589953102 -0.2054569761
0.5572142349 0.1419522876 -0.2086494859
0.4408095554 0.3203398178 0.0000000000
0.3549907146 0.2992365615 -0.2095343479
0.5216860621 0.1500000060 -0.3125226033
0.6472290789 0.1874371646 -0.1993368226
0.5744097431 0.1367541350 -0.2421103446
0.6159637036 0.1583121882 -0.2336875427
0.3299626050 0.2685435265 -0.0940795293
0.3864521014 0.2469999939 -0.2503392742
0.6293542977 0.1450148012 -0.1615195805
0.5393865101 0.3306480719 -0.1006853054
0.3907326097 0.3570719880 -0.0833450207
0.5786035086 0.1367502403 -0.1760093253
0.6008023897 0.2780555393 -0.2131050667
0.4119418256 0.3678216015 -0.0608920061
0.4128289173 0.1604422608 -0.2219982156
0.6246322170 0.1427601332 -0.1096815146
0.5760622739 0.1382982628 -0.1349063790
0.3920046347 0.3625139377 -0.0658117657
0.5941058307 0.1998430442 -0.2450968030
0.3501613176 0.1638559867 -0.3160195697
0.5591988096 0.1360000074 -0.2618300815
0.5447435579 0.1845258285 -0.3536630194
0.4388112858 0.1512962681 -0.2904673807
0.3251343933 0.2244203188 -0.1978341985
0.6418801519 0.1456629977 -0.0762894341
0.4305624287 0.3656035541 -0.0464770700
0.5372876954 0.3167921453 -0.0286467485
0.5086961838 0.1436974856 -0.2823712209
0.5118077600 0.1596597718 -0.0416152825
0.4347426360 0.2657147195 -0.3600000143
0.5796317367 0.1920427855 0.0000000000
0.3435892252 0.3592499949 -0.0133103536
0.5822606063 0.1812606185 -0.2225229901
0.6328896099 0.2554816875 -0.0295866220
0.3764889441 0.3657166844 -0.0318172181
0.4266074099 0.3569261324 -0.0965563038
0.6366564100 0.2549005044 -0.1987194430
0.6694908218 0.1895801568 -0.1404446687
0.3556265722 0.2120060597 -0.1266424919
0.3489645973 0.3542496903 -0.0478350409
0.3281013588 0.2654817085 -0.2188229155
0.3703616592 0.2641986669 -0.3217302629
0.3974958280 0.2001089540 -0.0456282836
0.4800834400 0.1637502584 -0.3566477537
0.5092311664 0.2450667182 -0.3600000143
0.6097918400 0.1598172201 -0.0062751846
0.4761528211 0.2526358204 -0.3600000143
0.4144110734 0.1767641407 -0.1150502068
0.4546841997 0.3056573475 -0.2493066654
0.3541080521 0.2439410560 -0.0633502534
0.3513307196 0.2307808179 -0.0994208486
0.5204582846 0.1420085659 -0.2860736742
0.4069529768 0.3313723565 -0.1841749361
0.3504022188 0.2154941789 -0.1345761687
0.5151719783 0.2024430837 0.0000000000
0.6498217188 0.2039940411 -0.2041736379
0.6306669136 0.1476279879 -0.1811133290
0.5007350498 0.3169318773 -0.1637383899
0.4347152232 0.1809256985 -0.3600000143
0.3565261576 0.2470396491 -0.0397170805
0.5445726900 0.3270088717 -0.0629728540
0.5312139525 0.1520024064 -0.0792948446
0.4862504831 0.3336505127 -0.1295513633
0.6252235375 0.2636236734 -0.2040175740
0.3908147325 0.1622446247 -0.2324532972
0.4576440100 0.3130526243 -0.2216117670
0.5496090992 0.2953683006 -0.2212141903
0.4365955148 0.3584768302 -0.0815245283
0.3715656022 0.1885834891 -0.1641113688
0.5323899089 0.3314522828 -0.1157845476
0.3999546317 0.2313848646 -0.3600000143
0.4293937434 0.2413642832 -0.1373749974
0.6321556898 0.2749595176 -0.0701140115
0.4328252771 0.1692135511 -0.1161998137
0.4366916963 0.2048366483 -0.0011267384
0.6009563155 0.1804187873 -0.0021690446
0.5935017164 0.2830081110 -0.0309496705
0.3304115617 0.2146087739 -0.1976886188
0.5800380818 0.3068648092 -0.1787204286
0.4143409020 0.1572074384 -0.3358379052
0.5270747112 0.1410000026 -0.2209300155
0.5884455015 0.2304796560 -0.2961455867
0.6180072391 0.1411107762 -0.0239987610
0.4373395326 0.1602186120 -0.1938597743
0.5817347997 0.1426142308 -0.0360664680
0.5189188206 0.3277355650 -0.0275795878
0.5363110779 0.3217651840 -0.0384444786
0.5301565139 0.2653855025 -0.2304177741
0.5380344785 0.2211337360 0.0000000000
0.6382803331 0.2789763776 -0.1012835869
0.3281428125 0.2236140021 -0.1883983856
0.5169732201 0.3356124210 -0.0654974815
0.4982045876 0.3298574964 -0.1361001944
0.5442963693 0.1794227653 -0.0010738714
0.4113459142 0.2096314336 -0.0023472380
0.5737501538 0.1668334330 -0.2230410205
0.6676950602 0.2177452694 -0.1692077766
0.6041951836 0.2820441077 -0.0416635049
0.6696047317 0.2107770740 -0.1508608712
0.5474617444 0.1465751384 -0.0562232411
0.4233293031 0.1860702791 -0.3600000143
0.3200867246 0.2710268563 -0.1252875182
0.4505484536 0.2789673260 -0.3527358027
0.3921607235 0.1795900605 -0.1553414425
0.5385206936 0.3188828599 -0.1548395476
0.4669221084 0.1620335182 -0.1406092469
0.5640041346 0.3054444565 -0.1869356036
0.3611332875 0.2007450867 -0.1423063638
0.4393304443 0.3509436520 -0.1067508693
0.3697457937 0.2468570577 -0.3472199492
0.5182484286 0.1412799982 -0.2982989616
0.6642597053 0.2050511790 -0.1752664264
0.3158181255 0.2782836316 -0.1636873009
0.3404519517 0.2040776633 -0.1880002638
0.4881349137 0.1535603110 -0.1862010666
0.3646829426 0.2260659409 -0.0702341869
0.4134788273 0.3650157333 -0.0717323755
0.3880132946 0.1587904274 -0.3171539621
0.4394824430 0.3537600938 -0.0969910877
0.3372521425 0.2275918324 -0.1478770191
0.5571628278 0.1633176913 -0.3367712251
0.5076584492 0.2335464624 -0.3600000143
0.3463014479 0.1847890487 -0.2337499053
0.5865227631 0.1379409078 -0.1571436596
0.3637158193 0.2969012344 -0.2352583725
0.4702527535 0.1814450913 -0.0034507105
0.6113165165 0.2882749685 -0.1821069683
0.5994488497 0.1416415909 -0.0834369275
0.4413284341 0.2242248135 0.0000000000
0.5427028434 0.1386939201 -0.1633312527
0.5570639414 0.2640676726 -0.2858911942
0.3331264601 0.1664997378 -0.2834041776
0.4489536423 0.1558485532 -0.2199790619
0.5055966091 0.3008262714 -0.2375829850
0.3506229304 0.2552205135 -0.0445974635
0.5133625570 0.2223483586 -0.3600000143
0.6074796373 0.2665841372 -0.0168576950
0.5945051075 0.2866672190 -0.0402502761
0.5249485654 0.1405486667 -0.2318484702
0.3783810799 0.2165239381 -0.0323395629
0.3645815432 0.3514404306 -0.0060005664
0.4529260706 0.2082965195 -0.3600000143
0.5152344060 0.2449128763 0.0000000000
0.5118946246 0.3013495239 -0.2310608639
0.3192567804 0.2664628927 -0.1962868955
0.3424187410 0.2726051497 -0.0396339055
0.3572501402 0.2131946475 -0.3467144551
0.4874704743 0.1580191089 -0.2037760465
0.6326813695 0.1435307131 -0.1406239015
0.3910595100 0.2099080855 -0.0045935764
0.5727975708 0.2293697861 -0.3150038328
0.4517935991 0.1729665546 -0.0499616990
0.3207576813 0.1815863185 -0.2778684297
0.3898846571 0.2544148483 -0.0017947131
0.6181393321 0.1416358465 -0.0371823793
0.5779496400 0.1755827154 -0.2076631131
0.3694442406 0.2776233608 -0.2905232365
0.5101746907 0.3301474113 -0.0207935163
0.4243275296 0.1674277538 -0.1431953737
0.4609349650 0.2626544857 -0.3600000143
0.3782598678 0.3075845830 -0.2350777445
0.4207786765 0.1879322176 -0.0198862777
0.3949962013 0.2181079498 -0.0033850956
0.5173691259 0.2039296594 -0.2127180931
0.4627764316 0.2927510640 -0.2895433641
0.5199000085 0.3016041976 -0.2241512529
0.3498932489 0.2720999415 -0.2561440306
0.6216107115 0.1426563688 -0.0917279251
0.4420820124 0.3344687280 -0.1609008371
0.6116591968 0.1410426301 -0.1131801960
0.6213184955 0.2265554467 -0.2554024240
0.3503397374 0.2587524446 -0.0349922034
0.3418207276 0.2217654442 -0.3308665819
0.4666981823 0.3556384538 -0.0456783047
0.3758963839 0.2220762207 -0.0127626555
0.4613339764 0.3057618225 -0.2435785262
0.5062852497 0.1566578515 -0.3540586111
0.3975379588 0.1578391078 -0.3226822164
0.4967516614 0.2986795831 -0.2514918778
0.3597743923 0.2410029555 -0.0529524855
0.3757497446 0.2283724035 -0.3558683183
0.4090206050 0.1928026297 -0.0647543127
0.3128190218 0.2704851639 -0.1575125670
0.5409891359 0.2140728832 -0.3528953596
0.6652211949 0.2233836725 -0.0513892767
0.4833322268 0.1461685379 -0.3249785384
0.4930233762 0.1647946393 -0.0578884571
0.6418303683 0.1540197704 -0.0491229928
0.4020841050 0.3678276213 -0.0530790740
0.6678879040 0.2103730439 -0.0589222461
0.3638750250 0.3567871727 -0.0561792108
0.4141035916 0.3623401481 -0.0808102514
0.6543905308 0.1647165544 -0.1648412895
0.3919064350 0.2385141180 -0.3600000143
0.3551462885 0.3430100864 -0.0066456825
0.3218369107 0.3138833596 -0.1004916455
0.4050448910 0.1608777664 -0.2275620997
0.6113617133 0.2754270244 -0.0388337945
0.5359611206 0.1399854896 -0.1693219116
0.3907782567 0.2785053461 -0.3391651039
0.4187705802 0.1600199013 -0.3432694724
0.5857515967 0.2574296229 -0.2658488387
0.6233419948 0.2917822701 -0.0997330591
0.4099125966 0.1896090031 -0.0760215174
0.3134285605 0.2609414079 -0.1743768812
0.4545269818 0.2596432404 0.0000000000
0.3716331117 0.2023150954 -0.1112542004
0.3948872445 0.3132694771 -0.2367838056
0.6674254489 0.2021926554 -0.0678749727
0.5888612278 0.2342780488 0.0000000000
0.3274592642 0.3093214420 -0.0411897421
0.5808724716 0.1543461241 -0.0041871610
0.5522775086 0.1873740136 -0.3509723170
0.6261872370 0.2889469789 -0.1363381437
0.5393112196 0.2313738701 0.0000000000
0.3325586579 0.2947297975 -0.0440580056
0.5833002300 0.1636084640 -0.2995642566
0.5776340189 0.1473334200 -0.2866649251
0.6027930226 0.3033926283 -0.0922636105
0.6325041030 0.1436871912 -0.1148506960
0.3965918864 0.2300722538 -0.0024194860
0.4778766653 0.3019339540 -0.2433157310
0.5531191862 0.3017474482 -0.2007789206
0.5531051004 0.1449358842 -0.2592127777
0.6347494533 0.2245505735 -0.0043498892
0.5590589132 0.1813688771 -0.3455538016
0.6536223876 0.2611578116 -0.0907553404
0.5041164861 0.1519174103 -0.1460067946
0.3192960219 0.2322885742 -0.2072147940
0.3294950059 0.2779889393 -0.0773548494
0.3875354523 0.2874283562 -0.0008595401
0.3623113198 0.3052038166 -0.2139747171
0.3665180617 0.3345175931 -0.1275745714
0.5154675895 0.1903455656 -0.0003588588
0.5529334531 0.3060923425 -0.0264617086
0.4891264611 0.2147524799 0.0000000000
0.5260444013 0.2834736092 -0.2631644552
0.5665503476 0.3188272553 -0.1196087902
0.4568694955 0.1496065351 -0.3259936103
0.5984376054 0.2423437708 -0.2733761932
0.6070358725 0.2776556764 -0.2057918534
0.4320024204 0.3390760181 -0.1532767990
0.3690965543 0.1616046630 -0.3211710257
0.6143648378 0.2203552679 -0.0003336803
0.5651898647 0.2055700836 0.0000000000
0.4255541483 0.1991774662 -0.3600000143
0.4084058681 0.1556794356 -0.3115717176
0.3208810747 0.2249119079 -0.2153406919
0.3928712447 0.2658849061 -0.3577920686
0.3345581847 0.2276556759 -0.1570908294
0.5733593267 0.1655389971 -0.2922469806
0.6703056821 0.2114444573 -0.0690765400
0.4282607627 0.3354753518 -0.1686191312
0.3193438479 0.2951583362 -0.0809094531
0.3394501133 0.3039248599 -0.0244138545
0.4917202824 0.2953977563 -0.2663357598
0.4963881816 0.1450832937 -0.2832099838
0.6444139407 0.2627841939 -0.1736069786
0.4676270930 0.3158600783 -0.0021114749
0.5382322335 0.3144280955 -0.1710121143
0.5687512035 0.2902503804 -0.2217906661
0.5222321245 0.1566046089 -0.0779715184
0.6157787936 0.2959042135 -0.0890035507
0.6145069509 0.2138222782 -0.2706732903
0.3323839336 0.3314229109 -0.0301875339
0.3160566772 0.2413061593 -0.2030179156
0.5257044143 0.2842733246 -0.0018291784
0.5310912237 0.2769278992 -0.2766910932
0.5827458557 0.1398505134 -0.1055040483
0.3342431162 0.2042683651 -0.2058377173
0.5955583518 0.1413146046 -0.2256004281
0.3767883245 0.3272922992 -0.0014182881
0.3923922738 0.1941685900 -0.0954587516
0.3372597210 0.3455984960 -0.0575091827
0.5131426535 0.1412383134 -0.3062640024
0.5373074800 0.2907715096 -0.2381481778
0.4096084590 0.1617390171 -0.2139692947
0.4580809722 0.3453259908 -0.1070210404
0.5809869376 0.2812668635 -0.0098862617
0.4618431956 0.1790481675 -0.0039778948
0.3154362870 0.2234266506 -0.2739165425
0.5417841309 0.2406357781 0.0000000000
0.4431629928 0.1692422841 -0.1031934240
0.6641547355 0.2496598131 -0.1294004709
0.6655177418 0.2505695473 -0.1143041733
0.4990742880 0.2411529897 -0.3600000143
0.4577594941 0.3593952710 -0.0144698673
0.5170287730 0.2978538996 -0.2389377104
0.5279547163 0.2737486140 -0.2895695083
0.5345156804 0.2329292270 -0.3497323493
0.5310274884 0.2277523034 0.0000000000
0.3205502434 0.1785165264 -0.2967473641
0.5357305548 0.1379421303 -0.2450324531
0.5250008576 0.1496911824 -0.1265319665
0.4288029214 0.1707271386 -0.1071529989
0.4341014267 0.2845463345 0.0000000000
0.6392044900 0.1933910992 -0.2195681114
0.6609368963 0.2307732104 -0.0410691674
0.6224127825 0.2615228216 -0.0283230632
0.4319335362 0.2231291760 -0.3600000143
0.3756301119 0.2062928498 -0.0896765166
0.3959458106 0.1594531922 -0.2519566337
0.4878003087 0.3484735698 -0.0330971920
0.5691699495 0.1373613134 -0.1488710935
0.3570913527 0.2506124312 -0.3196699247
0.5217969044 0.2716890855 -0.3012932565
0.5562098582 0.1435599013 -0.0627460652
0.4050381579 0.3349721681 -0.1712045932
0.5621714141 0.1377975313 -0.1288596897
0.6511483113 0.1789299908 -0.1855414573
0.4567206398 0.1622196788 -0.1514594703
0.4846921264 0.3411390974 -0.0126987444
0.3977924283 0.1664077025 -0.1853358914
0.3614313934 0.2949313122 -0.0044423890
0.4854893355 0.3282570192 -0.1401139274
0.5349011362 0.1489258494 -0.0895731395
0.3314763104 0.3198797794 -0.0318619093
0.4441745518 0.3110408321 -0.2393740544
0.4175447884 0.1986993782 -0.0035154185
0.3654280700 0.3416618934 -0.0042146005
0.4126143474 0.3259846033 -0.2037132893
0.4659286131 0.1585777031 -0.3499362220
0.3749586138 0.2873253953 -0.2826067571
0.6106740732 0.2040423177 -0.2798538899
0.5781557828 0.3004425853 -0.0489695377
0.4035265300 0.1869310033 -0.3600000143
0.3803164904 0.2062184667 -0.0780544965
0.6037209917 0.2550216945 -0.2470287861
0.3824755251 0.2099151211 -0.3584152601
0.4485281302 0.1665390157 -0.1215925808
0.3238167378 0.2382030961 -0.2676656550
0.3495051332 0.2819482104 -0.2339257979
0.4239438322 0.1526979395 -0.2974091559
0.3910064242 0.3168238230 0.0000000000
0.5621524281 0.2321863137 0.0000000000
0.5758812011 0.2524033649 0.0000000000
0.3187956974 0.2405323194 -0.1925322677
0.4919725298 0.3239814068 -0.1484033756
0.3225111798 0.3086943448 -0.0504642199
0.5534620153 0.3237693045 -0.1309567463
0.4652298340 0.1484990180 -0.3201512603
0.6460487482 0.2632335542 -0.0747996242
0.6659185115 0.1843494780 -0.0822432369
0.5773079165 0.3139414567 -0.0927598854
0.4340833443 0.2942598425 0.0000000000
0.6549444027 0.1514883860 -0.1374662536
0.3378472390 0.2344684126 -0.1319391992
0.5083019311 0.2635382374 -0.3414018108
0.4733557445 0.1579450201 -0.1705080510
0.3966366096 0.1850690858 -0.1238388699
0.4061229406 0.2858001162 -0.3370687633
0.4572491795 0.3500033343 -0.0077447240
0.6247119884 0.2014681170 -0.2540372462
0.5796735418 0.2202221168 -0.3134502917
0.3592988398 0.1651274544 -0.2446218530
0.4302180467 0.1598331777 -0.3452649370
0.5649283050 0.1897492615 -0.3417512414
0.3845230435 0.1704686321 -0.1807213404
0.3390660671 0.3424333030 -0.0695251647
0.6587913332 0.1809411997 -0.1696737495
0.5342894217 0.3309782137 -0.0568035821
0.4585380514 0.1691684664 -0.0778623200
0.6330072453 0.1914057774 -0.2310621177
0.3366415610 0.2740269669 -0.0589962472
0.5723111905 0.1641853340 -0.2577230195
0.5311944060 0.1499869373 -0.0980432205
0.5013564006 0.3381087175 -0.0263577230
0.5546611900 0.2354843788 -0.3275913025
0.5388679752 0.1376914549 -0.2990434300
0.4285789264 0.2840597079 -0.3442911079
0.6660964836 0.2302651596 -0.1678705140
0.3475236202 0.1868334172 -0.3384067019
0.4731878995 0.3539922649 -0.0291418157
0.4848597938 0.2817733279 -0.3173537629
0.4135006610 0.3076690636 -0.2654712896
0.6048322999 0.1913657080 -0.0015542542
0.4183141974 0.3563042813 -0.1012890797
0.6540293024 0.2068826668 -0.1972891931
0.5773460786 0.2593632620 -0.2718541032
0.5908603039 0.1405649672 -0.0986392576
0.4233692942 0.1703016530 -0.1177862835
0.5522049584 0.2746124449 -0.2668961934
0.3365971470 0.1812414889 -0.3238915673
0.3317993256 0.2278292485 -0.1668239080
0.4310921393 0.1544602455 -0.2506030497
0.6580993802 0.2292631056 -0.1885554448
0.5548248138 0.2446030318 -0.3166061582
0.5909900538 0.1904734262 -0.3158826092
0.4994877086 0.1635363050 -0.0173251068
0.4604752289 0.2994568461 -0.2658458307
0.3568506006 0.1615651173 -0.2789890949
0.5071459311 0.1942179594 -0.0000087805
0.6686790018 0.2216037571 -0.0625159311
0.4242252124 0.1657215414 -0.1591077868
0.5046559734 0.1463616850 -0.3299444135
0.3447245848 0.1769001564 -0.2498546253
0.4543580071 0.3598283368 -0.0373287520
0.5274175305 0.3340039363 -0.1005665270
0.6053315955 0.2488179134 -0.2563667638
0.5441224590 0.1472739279 -0.3326176456
0.5424127532 0.1363527334 -0.2530537460
0.5770276297 0.1356917773 -0.1998260624
0.4342574878 0.3628173953 -0.0724589078
0.5808176687 0.1557745366 -0.2945771076
0.4413192922 0.3468139985 -0.1192750246
0.4485842968 0.1514728416 -0.2740257409
0.4135809039 0.2980099936 -0.2979423006
0.3330339936 0.1957151945 -0.2277980944
0.4308093418 0.2442822889 -0.1279377392
0.5778869435 0.1383789580 -0.2512809224
0.6313543429 0.2819792495 -0.1520706964
0.5262562410 0.1570062843 -0.0574494332
0.5466643681 0.3136553382 -0.1722958778
0.5829276902 0.2511470410 -0.2773915314
0.3960232862 0.2032087592 -0.0086503654
0.4787952454 0.1614612649 -0.1082461148
0.6244276666 0.1560115141 -0.2152632509
0.5618961987 0.2811804600 -0.2457558288
0.3589718093 0.1629137696 -0.3201242457
0.4979680478 0.2746508001 -0.3232387899
0.3842777882 0.1773407176 -0.3549427080
0.5374461207 0.1459014524 -0.1050045803
0.5561012288 0.2391996402 0.0000000000
0.3952335605 0.1612943711 -0.3412224636
0.3550550538 0.2602642067 -0.2939714002
0.6093889217 0.1412945534 -0.0282870604
0.6484339696 0.2706109845 -0.1349693946
0.3871568106 0.1673974074 -0.1892865774
0.4897513808 0.3379147644 -0.1193671366
0.4972367648 0.2810668813 0.0000000000
0.5145549049 0.1527610606 -0.3468157345
0.4440742236 0.3013909818 -0.2724739826
0.5549055676 0.3197551783 -0.0598741706
0.4099304807 0.3005952061 -0.2883300287
0.4158948337 0.3389996404 -0.1600012386
0.6072825274 0.1442009425 -0.2213124784
0.6429482847 0.2023931964 -0.2172804480
0.5677119332 0.1600679200 -0.2164972053
0.3689906278 0.2304618472 -0.0148072575
0.4399182226 0.1570236775 -0.2202420631
0.6264956370 0.2380011857 -0.0030517612
0.4810196745 0.2451677021 -0.3600000143
0.5139465467 0.1436714104 -0.2059804311
0.4030442208 0.2772856704 0.0000000000
0.3665131595 0.2115248876 -0.0976011083
0.4353646115 0.3359788592 -0.0017581835
0.5187491880 0.1436389399 -0.1887003227
0.3872660121 0.1582719783 -0.2795008666
0.4302043688 0.1835258887 -0.0196079163
0.5090660266 0.1452563799 -0.2501235979
0.3151093057 0.2971731723 -0.0930276840
0.3645430744 0.3391032315 -0.1092954271
0.3846836442 0.1620629917 -0.2416899698
0.3267299536 0.2440425488 -0.1536921214
0.3736890830 0.3609400085 -0.0552006460
0.3615823023 0.1940098278 -0.3503501988
0.6183232783 0.2682879560 -0.0360419763
0.5262127718 0.1465775091 -0.1484579236
0.4557670009 0.1733014411 -0.0190073396
0.3606493124 0.2413726331 -0.0335684858
0.5087651811 0.1601744704 -0.0718682970
0.3743629604 0.1910013868 -0.1479879460
0.4694363155 0.2643629996 -0.3600000143
0.4048442227 0.2214065154 -0.3600000143
0.6038321143 0.2162830071 -0.2883275049
0.5094912660 0.3399661538 -0.0473643162
0.6620411102 0.2326875713 -0.1789896955
0.4383816395 0.1623556595 -0.1728029363
0.6170513289 0.2335534781 -0.2605565459
0.5412930722 0.1521402709 -0.0243704139
0.3246056676 0.2209835510 -0.2069737049
0.4692832458 0.3295766330 -0.1556711892
0.4549936326 0.1592785615 -0.1807998621
0.6734391737 0.2266315088 -0.1055830896
0.6497200784 0.2232699271 -0.2049753463
0.6193966845 0.1537778978 -0.0101851717
0.5821185795 0.1393756755 -0.1163740790
0.5212584195 0.1805174503 -0.0017299889
0.6575021161 0.2606707782 -0.1071476573
0.6343862368 0.1438770861 -0.0700997677
0.6428375179 0.1679302247 -0.0240088743
0.3827800424 0.3117202542 -0.2256086525
0.3565544974 0.3278828945 -0.1410632338
0.4951898025 0.2904294398 -0.0002393404
0.3390611138 0.3280992313 -0.0217152427
0.6104569806 0.2930053352 -0.1740988878
0.5756063828 0.1760165695 -0.0005690623
0.6146128987 0.2983532835 -0.1021572487
0.5078051426 0.2267884936 0.0000000000
0.4565480501 0.1529674231 -0.2253375283
0.4686277061 0.2790501938 -0.3387872064
0.3556523596 0.3181195630 -0.0043542128
0.5296884836 0.1542206986 -0.0662929015
0.5880435753 0.3107881287 -0.0888165068
0.4741689262 0.2069497363 0.0000000000
0.6278945946 0.2409077547 -0.2329676741
0.6717431832 0.1910355034 -0.1174447262
0.6118117515 0.1891166716 -0.2728112530
0.6512690919 0.2554048764 -0.0697707946
0.5157723709 0.3329186728 -0.1249544214
0.5670524619 0.2981574013 -0.2059103382
0.3990382082 0.2502590389 -0.0008118297
0.6654600832 0.1638259054 -0.1188203939
0.4517655472 0.3253069653 -0.1844287906
0.6694091878 0.2391374524 -0.1123134714
0.4201131224 0.3132508372 -0.2473632264
0.4719218181 0.1483653274 -0.2783634191
0.6011788286 0.2084525627 -0.2347229790
0.6136660585 0.1963429836 -0.0023643374
0.3167176921 0.3169481894 -0.0539936048
0.6604363248 0.2355821216 -0.0501951965
0.4939109494 0.2017643374 0.0000000000
0.4422136002 0.1582928211 -0.3442516991
0.4623544786 0.3066396217 0.0000000000
0.4740553268 0.1698072634 -0.3598273377
0.3746204229 0.2576094605 -0.0038886295
0.4509273631 0.2939286711 0.0000000000
0.4111513995 0.3048584585 -0.2743172352
0.3911138969 0.2752057176 -0.3470964073
0.5678650157 0.1814437880 -0.3398434147
0.5418225481 0.2510131109 -0.3223450413
0.4137933273 0.2834787842 0.0000000000
0.4297885565 0.3637875759 -0.0233782207
0.5015213627 0.3419543221 -0.0944612125
0.4324342684 0.1518088688 -0.3016714975
0.4414839771 0.1658019878 -0.1370932010
0.5605210061 0.2384469045 -0.3189421369
0.4503121491 0.2197614561 -0.3600000143
0.3483304360 0.1634852091 -0.3059793328
0.5532424596 0.2076134448 -0.3454722597
0.6095953484 0.2144855135 -0.2794723484
0.5872705110 0.2035483116 -0.3165069919
0.3207546822 0.2605839844 -0.1433371088
0.5848313376 0.1390216794 -0.2342495175
0.3310212750 0.2637071437 -0.2295792433
0.5142436468 0.2606741470 0.0000000000
0.4848914556 0.2160000056 -0.1463970424
0.4233296831 0.1540457739 -0.2790896473
0.4222822704 0.3671299167 -0.0643504737
0.4057477889 0.1693038358 -0.3509156060
0.4329615077 0.2361020028 0.0000000000
0.6413115499 0.1705314296 -0.1989529018
0.3355426991 0.2718673153 -0.2226445977
0.3749010949 0.2983930600 -0.0023758570
0.5225173981 0.3299468653 -0.0375622730
0.5086418312 0.2784709659 -0.2977180097
0.4520577452 0.1600973357 -0.3497801842
0.3226170286 0.2963126293 -0.0667075443
0.4588317540 0.2352224492 0.0000000000
0.4543275220 0.1759999990 -0.3258519985
0.4972093448 0.3234732519 -0.0081081933
0.3227485947 0.2845240351 -0.0892314587
0.4753222119 0.1501694599 -0.2358403993
0.4023420740 0.2392213996 -0.0010957988
0.5530681975 0.1360000074 -0.2535495997
0.4388827985 0.1547449969 -0.3353554692
0.4900089761 0.1465905659 -0.2738971962
0.6026149739 0.2930692003 -0.1841272577
0.4782800786 0.1458724825 -0.2998826184
0.5831150509 0.2421394711 -0.2895752707
0.5589822136 0.1404311474 -0.0911081637
0.3334839967 0.2520113957 -0.2607085956
0.5798301455 0.3102071423 -0.1671662107
0.4595151367 0.2960410681 -0.2783090136
0.3484871496 0.2302944274 -0.1087986655
0.5020692582 0.2430247516 0.0000000000
0.3250828460 0.3020635158 -0.1326776094
0.4608296978 0.3095437405 -0.2310452131
0.5345386161 0.3293876693 -0.0708643510
0.6603063876 0.1557741075 -0.1321274639
0.4452091997 0.1547973534 -0.2293870786
0.3653680943 0.3157819311 -0.0031054257
0.4972508684 0.2575286822 0.0000000000
0.4227208462 0.1836618047 -0.0726301517
0.5700756211 0.1421500649 -0.0349512009
0.4457479154 0.1514226854 -0.3291410662
0.6342801232 0.2044075334 -0.2362162041
0.6508144107 0.1559880913 -0.1618350127
0.6664188965 0.2345876429 -0.1525583986
0.3464510207 0.3144610878 -0.1563744688
0.5456096573 0.2655094431 -0.2935615664
0.6326633851 0.2450094209 -0.0081777046
0.6061676210 0.2990139957 -0.0816149949
0.5024101772 0.2751073012 -0.3148712574
0.3572015408 0.2140548110 -0.1176735526
0.4976941994 0.2959217168 -0.2600563098
0.4400115877 0.2577514809 -0.3600000143
0.3823671562 0.3534365838 -0.0885073807
0.3165516828 0.2401351307 -0.2467534932
0.3485708167 0.3641713870 -0.0215270928
0.6033540020 0.1716919237 -0.2728730940
0.5025649669 0.1494644139 -0.1690025059
0.5994211814 0.1420508314 -0.0366389152
0.6294589739 0.2547549895 -0.2105911993
0.5843651477 0.1963177644 -0.3237904496
0.5376919251 0.1732678586 -0.0022605435
0.5185080113 0.2667241182 -0.3205864505
0.6536330141 0.1754986437 -0.1781311599
0.5834598410 0.2449452480 0.0000000000
0.3180727653 0.2167980273 -0.2985267295
0.4331814084 0.2512067913 -0.3600000143
0.4908559944 0.1656026204 -0.0126455182
0.5494539658 0.3245315064 -0.0714234479
0.4554037438 0.2262548966 0.0000000000
0.5434835906 0.1400401574 -0.1444079674
0.5659339233 0.2574797850 -0.2866397603
0.4654145679 0.1549274875 -0.2082140051
0.4365771707 0.2860148908 -0.3378569924
0.5920377607 0.2959219622 -0.1919358328
0.4579986566 0.3581184707 -0.0462140608
0.5865161571 0.2185029354 0.0000000000
0.6701275581 0.1778946948 -0.1286849122
0.4226454466 0.3004575987 0.0000000000
0.4594547072 0.1720074791 -0.0296072398
0.3585587672 0.3353903359 -0.1164310284
0.5693422826 0.1374825856 -0.2708034723
0.6620307847 0.2507893715 -0.0890303359
0.3140683743 0.2408822986 -0.2208954622
0.3739462939 0.2714066071 -0.3146353356
0.4090611047 0.2546440845 -0.3600000143
0.5829498627 0.2952450567 -0.0439936087
0.5411282446 0.3292783450 -0.1107972738
0.4059469291 0.1956439857 -0.3600000143
0.4987835429 0.3040966208 -0.2192009282
0.3397745044 0.1917495929 -0.3295906522
0.6398387204 0.1447189479 -0.0887250526
0.5539274084 0.3153055693 -0.0485240582
0.4401613158 0.1745009195 -0.0704832153
0.4882345308 0.1658666999 -0.0343225252
0.5492090859 0.3105955983 -0.1809315947
0.3420743979 0.2489156170 -0.2877580618
0.4662363093 0.1489966202 -0.2465195939
0.4765712941 0.3525106050 -0.0489961159
0.5944210538 0.2972635620 -0.0635779972
0.3334435754 0.2684658398 -0.0815231224
0.5308749826 0.1394777751 -0.3021398116
0.3426459384 0.2762326652 -0.2300343384
0.3803258188 0.2504557479 -0.0034391483
0.5365998358 0.2999987553 -0.2124256135
0.5782471657 0.1360000074 -0.2152303578
0.3946801332 0.3359484530 -0.0000621307
0.5372314297 0.1379820507 -0.2632881013
