0.4768042552 0.2744185595 -0.1780071139
0.3582857265 0.2456315299 -0.2349999994
0.4088240453 0.2375983682 -0.2349999994
0.4711963063 0.1760954164 -0.2599999905
0.5892931773 0.1910702044 -0.3081205300
0.5899984592 0.1909714161 -0.2359623910
0.5579652466 0.1430680633 -0.2002100458
0.5205775733 0.2383963037 -0.3561066514
0.5497992806 0.2725985334 -0.2452040792
0.5786242248 0.1750678183 -0.3036827622
0.5785015007 0.1735024983 -0.2081365920
0.5017599028 0.2089949677 -0.2370542501
0.5570175532 0.1401165099 -0.2024242048
0.5265143170 0.2402068528 -0.3502923401
0.3555373677 0.2184841496 -0.2514938131
0.4044110189 0.1834092533 -0.2594884232
0.4979748432 0.1524435869 -0.2520921148
0.4108580462 0.2949316926 -0.1484471768
0.5542538054 0.2098151255 -0.3362436681
0.5780646813 0.1727744573 -0.2504321894
0.4011972754 0.2360404268 -0.2532012707
0.6142122000 0.2481180585 -0.2348308476
0.3659819573 0.1813147951 -0.2571065009
0.5000000000 0.2272391505 -0.2510241626
0.3945414125 0.1862105831 -0.2582048960
0.3677277209 0.2391468121 -0.2528670293
0.5274877502 0.2238924721 -0.3554052075
0.6041529776 0.2134353100 -0.2295838120
0.5412261038 0.2271113195 -0.3400277927
0.5725915081 0.1676525323 -0.2196781007
0.6150000095 0.2293753744 -0.2599727379
0.6078772253 0.2182167043 -0.2256137789
0.5727768353 0.2330131411 -0.2997928314
0.5709999800 0.1621274780 -0.2123367525
0.5167702962 0.1569806223 -0.3412454742
0.3585069101 0.3434779034 -0.0303164644
0.5448294119 0.2217622321 -0.3380490326
0.6261836150 0.2497884812 -0.2089182461
0.5172754075 0.1450780240 -0.2217671025
0.5108699510 0.1471300457 -0.2215521490
0.4728514157 0.1861260404 -0.2438750620
0.6284100151 0.1637480379 -0.1651863503
0.6168280268 0.2310467319 -0.2124828465
0.5507228958 0.2711341806 -0.2353354553
0.6127945084 0.2348596250 -0.2595881208
0.3855064436 0.2592549757 -0.2695750534
0.3289288920 0.2158169192 -0.3115481437
0.3604434343 0.2380577471 -0.2594902633
0.5221452420 0.1433419091 -0.2285028624
0.5725212036 0.1645353531 -0.2435916012
0.4179794206 0.2265688764 -0.2349999994
0.3526572878 0.2103356227 -0.2505711636
0.3871782656 0.2594399887 -0.2692666960
0.5160009317 0.2045254498 -0.2149984054
0.3805470967 0.2526070138 -0.2837820214
0.5952166744 0.1492779347 -0.1963122860
0.4884531779 0.1782034826 -0.2217023246
0.4749999940 0.1765808128 -0.2479487028
0.6009502387 0.2689424512 -0.2051788548
0.3559822320 0.2430918781 -0.2339444700
0.4905537750 0.1554255863 -0.2539360357
0.4693344132 0.1823041587 -0.2547889135
0.5486374063 0.1857669104 -0.3452072468
0.5772299999 0.1713833049 -0.2270653525
0.3201371511 0.1812453562 -0.2798593974
0.5893038696 0.1912371684 -0.3015066273
0.4748276984 0.2674517741 -0.1894483249
0.6456869584 0.2173322424 -0.1432549735
0.5736237264 0.1664464813 -0.3143728784
0.5952205788 0.2005939172 -0.2055459870
0.3681388967 0.2630329248 -0.0080469697
0.5217298221 0.2599397429 -0.2364633710
0.5129023878 0.2502108207 -0.3397364785
0.4641298027 0.3184813327 -0.0965278787
0.3873579035 0.1717060932 -0.2717652420
0.4600201245 0.2363199181 -0.1960195222
0.4047082132 0.2355556270 -0.2445136890
0.3167475785 0.2165737471 -0.2934589437
0.5868604520 0.1869460454 -0.2949094301
0.4204229873 0.1942766935 -0.2478328134
0.5973166897 0.2034388920 -0.2151261646
0.5821512241 0.1804341479 -0.2297137910
0.6218606690 0.1545967513 -0.1043279156
0.5056454181 0.1943723034 -0.2249999940
0.5400000215 0.2309482321 -0.3394156910
0.5742569784 0.1692873632 -0.1270033090
0.6549908661 0.2056417226 -0.0707612267
0.6058318387 0.2158536265 -0.2351088958
0.4343716348 0.2546861876 -0.1555236393
0.4139842352 0.2288881404 -0.2498135643
0.6004566057 0.2639999986 -0.2175012545
0.5352816922 0.2687757290 -0.2599999905
0.5606794801 0.1487353955 -0.2202796604
0.4826066613 0.1586135562 -0.2533588813
0.4014936536 0.2003563333 -0.2339216438
0.3470000029 0.1785691580 -0.3204280297
0.5096813420 0.2343241663 -0.2303375022
0.6111592898 0.2251194603 -0.2514872579
0.6108708569 0.2388102968 -0.2599999905
0.5015954129 0.1724119463 -0.1049999967
0.4075857280 0.1727264590 -0.2650039481
0.4783840165 0.1786163202 -0.2350576012
0.3782202256 0.2406532454 -0.2442519860
0.6179999709 0.2330849401 -0.2592120111
0.4849635883 0.1623454715 -0.2960323693
0.5622530656 0.1495286201 -0.2599999905
0.6150000095 0.2323734640 -0.2457761618
0.4749999940 0.1838507109 -0.2353132478
0.5035517359 0.1488160881 -0.2514115622
0.5709999800 0.1642832043 -0.2203506116
0.5008520392 0.2421385464 -0.2592899564
0.5861340128 0.1877320166 -0.2795595089
0.3850052740 0.2464135109 -0.2532265003
0.5935984797 0.1983989869 -0.2507752479
0.6316280387 0.2492479885 -0.1086144020
0.5472651084 0.1364998870 -0.2706375090
0.5574356074 0.2730000019 -0.2312569321
0.3683484186 0.2301008347 -0.2438206565
0.4294898185 0.2236787359 -0.2489471486
0.6188378367 0.2781804307 -0.1410387894
0.4816111574 0.1882259898 -0.1196111613
0.5176911102 0.2070231679 -0.2122393693
0.5488260167 0.3041974019 -0.1845064748
0.5712015891 0.1623360131 -0.2545743204
0.5082858409 0.2670107471 -0.3180861838
0.4064380054 0.2308385803 -0.2527378311
0.4331427196 0.2499058452 -0.1587940910
0.4085702108 0.2064160909 -0.2579195434
0.3349750163 0.2189410402 -0.2341874811
0.4290466375 0.2960910541 -0.1160140688
0.4176842818 0.1900475944 -0.2523084583
0.5179905423 0.2566251997 -0.2499278290
0.3960818373 0.1893317158 -0.2485399253
0.4884454889 0.2654740860 -0.3191144416
0.5170444394 0.2678621651 -0.3100778137
0.3866084592 0.2540108326 -0.2838313526
0.5887505522 0.1892682689 -0.2399999946
0.4856265882 0.1620000005 -0.2999449978
0.4160876961 0.2005347540 -0.2480452424
0.5781024174 0.1758373481 -0.2378619772
0.4324710024 0.2782698483 -0.3478462314
0.5793926003 0.1589999944 -0.0894324769
0.5512803942 0.1372904598 -0.2728543080
0.5990391608 0.2070653080 -0.2537390901
0.5275690463 0.2529743764 -0.2172551412
0.4795223272 0.2746648390 -0.1796402968
0.4968630156 0.1507662382 -0.2297304752
0.4860175709 0.1550000012 -0.2386154174
0.5632088454 0.1515286822 -0.2215991676
0.4233052717 0.2158879999 -0.2399999946
0.3527233261 0.1924963892 -0.2542953043
0.5773309076 0.2154925250 -0.2905514744
0.5687644794 0.2712662773 -0.2559732663
0.4989301039 0.2206416687 -0.2517831637
0.6127634156 0.2243594305 -0.2049999982
0.4300000072 0.2204081631 -0.2480290666
0.3821712139 0.2343725373 -0.0319037245
0.4771458214 0.2945047773 -0.1700000018
0.4162483926 0.2132409331 -0.2406345936
0.5257882817 0.2654228866 -0.2462815440
0.4908471789 0.1762667583 -0.2248089724
0.5758813072 0.1706271008 -0.2902271555
0.4243582403 0.2276589783 -0.0879464794
0.3799999952 0.2418062345 -0.0317055667
0.4020982243 0.1964814083 -0.2348772310
0.5513426369 0.1780000031 -0.1619716424
0.4000354009 0.1900638499 -0.2581714010
0.3951971963 0.1917261142 -0.2399999946
0.4904200190 0.2641146109 -0.3154720096
0.5918765139 0.1951619295 -0.2768724592
0.6090989567 0.2191534686 -0.2091750117
0.4619501041 0.2539743644 -0.3063911964
0.5721446865 0.1639078296 -0.2502887476
0.6484923136 0.2254161598 -0.0380359006
0.5937521112 0.2604985989 -0.2497623699
0.6095295000 0.2438528651 -0.2567834780
0.3628413997 0.1894969603 -0.2477693940
0.4145716417 0.1998768675 -0.2511341240
0.3644727129 0.2505297995 -0.2800000012
0.4809893156 0.2865067411 -0.1854100816
0.5454723091 0.2177651698 -0.3376443831
0.4296782749 0.2786434430 -0.3473739145
0.5153573628 0.2546700484 -0.2532718685
0.4774597762 0.2774427249 -0.1815569729
0.5013504099 0.2086141771 -0.2367847591
0.6464553866 0.2237699935 -0.0397991547
0.4690000117 0.1909844511 -0.2452610106
0.3805115370 0.2443372633 -0.2533431464
0.4705961689 0.1879773073 -0.2436698672
0.5217689638 0.2631582725 -0.2451577924
0.5868044448 0.1863911426 -0.2756703929
0.6073115155 0.2190218423 -0.2361474546
0.5582288117 0.1463050471 -0.2404396299
0.5719391109 0.1646143049 -0.2084347876
0.4921902323 0.1511756486 -0.2251786112
0.3909666826 0.2566370436 -0.2806049286
0.6369587380 0.1999461605 -0.1670412671
0.6475733171 0.1853377229 -0.0246688085
0.3604339768 0.1889988229 -0.2500677752
0.4844080327 0.1587141262 -0.2242457015
0.4690000117 0.1839993307 -0.2598015932
0.6302290831 0.1839661080 -0.1677709397
0.5076228886 0.2430819218 -0.2500318330
0.5311467750 0.1418572211 -0.2421497089
0.5031235603 0.1687418233 -0.2110849650
0.6245941437 0.2016896778 -0.1979951342
0.4648525827 0.2590000033 -0.3206438697
0.5147818496 0.2006788734 -0.2150000036
0.4883380218 0.1977816307 -0.2450000048
0.5519883204 0.1360038960 -0.2437831313
0.5941722703 0.2654336674 -0.2282079181
0.5794354180 0.1768174083 -0.2599999905
0.6195299820 0.2357236953 -0.2221157595
0.5165003588 0.2596977598 -0.2538254922
0.4874320678 0.1531759475 -0.2256135028
0.6482479518 0.1822255547 -0.1150000021
0.6093901046 0.2842313672 -0.1403855978
0.4209980468 0.2870719962 -0.1151508421
0.5738797728 0.1667996170 -0.2056925091
0.5783775651 0.1750539102 -0.3102258782
0.6006936484 0.2068227677 -0.2340981773
0.5484802215 0.1811859581 -0.3491273137
0.5740893167 0.2177915927 -0.2900578507
0.5399250017 0.2241332068 -0.3450937732
0.4691776302 0.2730881665 -0.1953327612
0.4648749373 0.1745203718 -0.1853126671
0.5026178694 0.1879574537 -0.2249999940
0.3667026444 0.1833852244 -0.2540369330
0.5189999938 0.2032330833 -0.2102331289
0.3496376160 0.2151542189 -0.2560343553
0.6130796613 0.2254395580 -0.2486762827
0.6166877994 0.2371869780 -0.2519711848
0.4776349034 0.3001883165 -0.1694421956
0.5645489020 0.1526616771 -0.2066758659
0.5880705262 0.1889892991 -0.2773319836
0.6457513400 0.2149096396 -0.1550000012
0.6138883265 0.2329454473 -0.2573386778
0.5082452758 0.1494760819 -0.2196516790
0.6246456509 0.1552755822 -0.1887385563
0.5799999833 0.1789849895 -0.3057766949
0.5039120845 0.1982185783 -0.2209547883
0.6146084790 0.2277063522 -0.2507916178
0.5258988697 0.2631908120 -0.2300522298
0.4980520689 0.1839345103 -0.2215364428
0.5840953118 0.2028360360 -0.3103384665
0.3705947079 0.2663650765 -0.0348472251
0.6206151837 0.2390940882 -0.2200200665
0.4120873361 0.2120796006 -0.2599574774
0.3534144286 0.1758618519 -0.3399185050
0.4846023667 0.1592717379 -0.2162072803
0.5202164662 0.2603333475 -0.2436520560
0.6260443127 0.2045674343 -0.1982239546
0.5848527871 0.2833247947 -0.1854060040
0.6210404644 0.2011438360 -0.1949999928
0.6509740749 0.1851558753 -0.1151297357
0.4023594759 0.1861393428 -0.2589072330
0.3805869012 0.1856532715 -0.2403253278
0.3626514037 0.2478015092 -0.2797573896
0.4485107162 0.2035759899 -0.1995091516
0.5240696099 0.1425782600 -0.2391901626
0.6296347307 0.1867605999 -0.1695061767
0.3660333114 0.2480982981 -0.2773738718
0.3794164821 0.2458077122 -0.2579807129
0.5030447064 0.2632661599 -0.3234172860
0.5113024217 0.1614736975 -0.1894403374
0.6244721462 0.2397926574 -0.2142131029
0.4802550689 0.2877902094 -0.1929197997
0.5013007843 0.1495664090 -0.2533569151
0.3869522734 0.2544052269 -0.3252003460
0.5583928976 0.1462946544 -0.2596785589
0.4649659867 0.2091733415 -0.1899999976
0.5628151277 0.1505445851 -0.2563527126
0.3829599307 0.2310801178 -0.0309327590
0.5285345990 0.1519999951 -0.3299900515
0.5084862042 0.2250505263 -0.2308563292
0.5046736197 0.1832683862 -0.2099999934
0.5762552566 0.1700069883 -0.2102838414
0.3671542336 0.2368397396 -0.2510937637
0.6190166703 0.2409347004 -0.2283635706
0.4629644241 0.2367328393 -0.1986376403
0.4152772643 0.2662870360 -0.3294720618
0.5315633893 0.1410000026 -0.2523043228
0.5964325058 0.2031441597 -0.2052102483
0.5305757509 0.1418484992 -0.2489455376
0.5460000038 0.2185953614 -0.3412018371
0.6240000129 0.2430426968 -0.2149043305
0.5841426063 0.2049110663 -0.3081846128
0.5890856602 0.1941162214 -0.2936797881
0.5048899433 0.1680911927 -0.2149057104
0.5072650006 0.1488374350 -0.2360245620
0.3203135179 0.1886423014 -0.2753443036
0.3806462522 0.1723010994 -0.3449999988
0.5793492380 0.2105526013 -0.2947202458
0.4777790985 0.3007091716 -0.1689825852
0.3998210795 0.2016559296 -0.2302064407
0.5095097977 0.1480000019 -0.2471262990
0.4816317265 0.2741478148 -0.1774353197
0.5173880203 0.2406139303 -0.3597425800
0.5727106055 0.1678510264 -0.2102443330
0.5464169469 0.1362332239 -0.2528660227
0.6150000095 0.2350901121 -0.2468367933
0.4033547631 0.2431379720 -0.2438769016
0.4112788604 0.2066159934 -0.2545352493
0.5044519875 0.2656669371 -0.3213095781
0.3832879294 0.2446167115 -0.2436981729
0.5818693322 0.2663467999 -0.2396398032
0.4249680882 0.2174531931 -0.2529042437
0.4651251174 0.2095021553 -0.1871861526
0.4884214077 0.1885279270 -0.2371064332
0.5982303715 0.1696550934 -0.1511145549
0.5832692367 0.2714592502 -0.2272550239
0.5617878395 0.1500410636 -0.2487338533
0.4914585160 0.1672654380 -0.2214780984
0.6524813996 0.1971718296 -0.1186193474
0.3372204438 0.1945718522 -0.2328567917
0.4814120402 0.1595350140 -0.2150000036
0.4045481311 0.2781069140 -0.3499999940
0.3556557715 0.1952418071 -0.2456045387
0.4062254596 0.2060496075 -0.2597779921
0.5591903114 0.1472143104 -0.2551201123
0.4807961512 0.1615206099 -0.2292642988
0.5260621058 0.2547375961 -0.2211011986
0.4802800558 0.2886840531 -0.1939754582
0.5514850237 0.1381781058 -0.2224251509
0.5934795075 0.1957991768 -0.2569347213
0.5739640713 0.1669401135 -0.2336560856
0.6212564568 0.2460816590 -0.1850000024
0.6184554981 0.2307592102 -0.2209124581
0.3219358016 0.1822948785 -0.2758121182
0.3998695875 0.2277702110 -0.2596445458
0.4377679336 0.2179503469 -0.1026905005
0.4912341679 0.1962842545 -0.2348894008
0.3590870333 0.1761620389 -0.3345949100
0.4798843628 0.1675080239 -0.2450000048
0.4725159690 0.2674872541 -0.2649999857
0.6412794351 0.2093745482 -0.1540077240
0.5761717267 0.1728956110 -0.2424093106
0.4262454644 0.2424273627 -0.1000000015
0.6198932883 0.2351995524 -0.2049999982
0.4060280435 0.2257205603 -0.2399999946
0.6104274027 0.2413749336 -0.2542989767
0.5994226984 0.2077045322 -0.2195918076
0.4939999878 0.2020721123 -0.2439979077
0.3651872148 0.2481270994 -0.2322416887
0.3906556953 0.2590994643 -0.2698342412
0.5750944039 0.2267355029 -0.3143554438
0.5106580596 0.2497715817 -0.2488887650
0.3839570937 0.2540325839 -0.3549284730
0.3891623988 0.2532034655 -0.3276531532
0.6210792004 0.1589999944 -0.1161851004
0.4990698220 0.1518603758 -0.2567368274
0.4682127020 0.2992439659 -0.1651083791
0.5962725020 0.2645133340 -0.2253569347
0.5717217309 0.1654811679 -0.2535361024
0.4006213759 0.1816030702 -0.2331145210
0.5728558093 0.1692547698 -0.3120956447
0.5863290296 0.1910411471 -0.2866450378
0.4842835871 0.1652605641 -0.2316858556
0.5929999948 0.1973885375 -0.2432697593
0.5125721024 0.1446125471 -0.2276504111
0.5972444404 0.2016592545 -0.2183529794
0.6211410357 0.2522927795 -0.2139742223
0.5518728001 0.1842064733 -0.3491293856
0.4527707318 0.1715541805 -0.3549999893
0.3513887026 0.2224921920 -0.2576854716
0.3305545049 0.2094950021 -0.3144342885
0.6176497058 0.1503599418 -0.1900876881
0.5979908677 0.2026545019 -0.2594542727
0.6063932596 0.2634606526 -0.2077809646
0.4319327897 0.1780000031 -0.3551011946
0.5162464677 0.2535199709 -0.2463674523
0.5816427841 0.2684462836 -0.2365182067
0.4029305665 0.2469602336 -0.2435484710
0.5436887999 0.1379999965 -0.2516434652
0.5869813707 0.1874560448 -0.3044543306
0.5303836703 0.1428465285 -0.2488744209
0.3692269510 0.1784388357 -0.2597730287
0.6331013194 0.1753744699 -0.0799999982
0.5799999833 0.1787149428 -0.2978479287
0.4064014232 0.2311992121 -0.2524982783
0.5794710341 0.1781184100 -0.2197880408
0.3662419481 0.2375626016 -0.3454032521
0.4979626583 0.1518657259 -0.2448569863
0.3604934048 0.1810936195 -0.2331773085
0.3657362543 0.2327137808 -0.2502805618
0.6098115584 0.2423822585 -0.2598339566
0.5605751151 0.1490051061 -0.2371499759
0.4877677378 0.1576550162 -0.2383406121
0.4753704809 0.1810015570 -0.2365165230
0.4022935412 0.2302291788 -0.2404892156
0.5479790015 0.1975713826 -0.3454725320
0.4754916341 0.2674980490 -0.2664830629
0.6052075073 0.2664147835 -0.1860374558
0.5417889822 0.1373232485 -0.2599999905
0.6150000095 0.2301963068 -0.2482609507
0.4989964469 0.2032182160 -0.2302727807
0.5931242810 0.1970147123 -0.2419873769
0.5961582894 0.2002110369 -0.2158459759
0.4763242075 0.1882303962 -0.2419747779
0.3597097932 0.2247112232 -0.2489670461
0.5476268938 0.1379939531 -0.2233761257
0.5780326049 0.2109125441 -0.2917209837
0.4821302819 0.1597092428 -0.2269215368
0.5978049379 0.2054065929 -0.2486289431
0.5398956088 0.2701408281 -0.2592114654
0.3940610112 0.1896308865 -0.2544623362
0.6214293646 0.2051887377 -0.1950812496
0.4087690832 0.2357156373 -0.2457116230
0.4791440372 0.1613156301 -0.2423156303
0.6230337074 0.2486104951 -0.2168753298
0.3893041960 0.2616148832 -0.2656418430
0.6068579010 0.1667502662 -0.1568460297
0.5237474616 0.2332984205 -0.3572321976
0.3497321246 0.2088872283 -0.2550519445
0.4290761176 0.2220534372 -0.2452159384
0.6124487467 0.2260865530 -0.2598579450
0.5796821073 0.1784702039 -0.2462362048
0.3829999864 0.2332398348 -0.0278157085
0.6518344190 0.2557736258 -0.1313745230
0.3567734964 0.2143414939 -0.2503646531
0.5765956334 0.2070983461 -0.3153889749
0.5449894224 0.3039999902 -0.1840005490
0.5884599437 0.2690808754 -0.2277041170
0.6153861697 0.2551390050 -0.2205434855
0.6397476399 0.2559380786 -0.1547559736
0.3952694290 0.1898140436 -0.2571157037
0.4886845058 0.1523154835 -0.2221873004
0.3857632467 0.2450000048 -0.2490061035
0.5424354185 0.2239932579 -0.3403240831
0.4632761517 0.2363339176 -0.1977308483
0.3502732381 0.2178577015 -0.2578652742
0.4048033760 0.2287934864 -0.2395859937
0.4936038534 0.1953676319 -0.2405455486
0.5507673852 0.1692174424 -0.1255436050
0.4783566451 0.1595515729 -0.2194055704
0.5308349031 0.1699558191 -0.1013178814
0.3526066672 0.2404931019 -0.2340508146
0.4811807728 0.1873279094 -0.1158203161
0.5219817449 0.2539269274 -0.2267924585
0.4219134385 0.2238759317 -0.2526550824
0.3993921472 0.2282135219 -0.2596635078
0.5935441546 0.1989069248 -0.2143631217
0.6438972769 0.2341240322 -0.1449999958
0.6213554867 0.1592904691 -0.1836831661
0.5252194401 0.2513719607 -0.2196342285
0.4911681143 0.2071120812 -0.2557411735
0.4230583208 0.2201546408 -0.2480393212
0.4853903256 0.1548438783 -0.2347397954
0.5433521896 0.2242349666 -0.3355870150
0.6035780830 0.2135396969 -0.2350479857
0.5623540447 0.1510155423 -0.2422517829
0.6092132312 0.2226176544 -0.2225939761
0.4791833092 0.1594703700 -0.2394765895
0.6135564447 0.2255043981 -0.2202603327
0.3773495332 0.2430942077 -0.2518859916
0.4806277217 0.1601418984 -0.2339060347
0.5248705242 0.2578512445 -0.2306561237
0.6324619608 0.1851559976 -0.1655380620
0.5713235039 0.1675391996 -0.3095904718
0.4152076516 0.1945124855 -0.2405191444
0.5393460035 0.2247831519 -0.3493572011
0.4193038643 0.2863370970 -0.1196106434
0.3620209558 0.2359861182 -0.2549650502
0.5799875932 0.1789793546 -0.2426992063
0.6402310641 0.1758557806 -0.1087184677
0.5711864088 0.1653107188 -0.2342639963
0.4056195477 0.1729999930 -0.2697949121
0.5943627907 0.1982230809 -0.2349999994
0.6392611286 0.2315563823 -0.1498256671
0.4681278320 0.2520747284 -0.3075598586
0.4151682452 0.2031185610 -0.2500000000
0.3481184473 0.2149775320 -0.2591759351
0.4063470922 0.2925881467 -0.1476469059
0.4067898624 0.2376608043 -0.2500000000
0.4841644490 0.1623591538 -0.2333635672
0.6240000129 0.1946467724 -0.1984932829
0.4773759182 0.2964298129 -0.1690664155
0.6098016682 0.2222934068 -0.2150174841
0.3688508279 0.2417208771 -0.3499519963
0.4108484201 0.2119096016 -0.2349999994
0.5191399737 0.2574497080 -0.2419509190
0.4650813424 0.2120925336 -0.1855671679
0.3559650896 0.2110836437 -0.2500672846
0.3680807273 0.2326432374 -0.2457263745
0.6094226475 0.2228968738 -0.2489509620
0.5460093815 0.2038015276 -0.3480129587
0.4369421341 0.2213293505 -0.1006070859
0.4097420573 0.2964411050 -0.1450329350
0.6477055961 0.1842351977 -0.0203099982
0.5029833001 0.1499413694 -0.2097698023
0.4987967909 0.1643885853 -0.3540285331
0.4064765931 0.2314258322 -0.2446451489
0.3231603533 0.2171023530 -0.3060854791
0.5487865146 0.1812723720 -0.3485129212
0.3644102148 0.2755902786 -0.0351360668
0.5210000277 0.2424305039 -0.3537153501
0.4736886799 0.2947894587 -0.1694361030
0.4690961930 0.1863304483 -0.2474085453
0.6241323327 0.1566221814 -0.1183766945
0.4716221512 0.1724254604 -0.2594561904
0.3841000646 0.2466116252 -0.2521685197
0.5491731002 0.1704117675 -0.1279580138
0.4120257473 0.2035285398 -0.2400643617
0.5176842323 0.2538122269 -0.2428199615
0.5923506887 0.2212342482 -0.2711522397
0.6137900345 0.2382053366 -0.2578437687
0.4723202227 0.1797539649 -0.2458314193
0.6440417879 0.2262562569 -0.1402300849
0.6124390903 0.2245854708 -0.2439261067
0.5746529531 0.1708705971 -0.2508364003
0.4939627194 0.1997093698 -0.2400310518
0.4749999940 0.1854494573 -0.2394595703
0.4731818535 0.1923291591 -0.2526256700
0.3827527493 0.1877457112 -0.2400058657
0.5475832486 0.1814950706 -0.3449999988
0.5777698584 0.1722830799 -0.2145487609
0.6089445216 0.2217084067 -0.2453404415
0.5301609593 0.1429356121 -0.2550947102
0.5741563539 0.1672084652 -0.2753342610
0.5709999800 0.1622485649 -0.2312534142
0.4650363670 0.2058055998 -0.1899999976
0.6406678638 0.1765680861 -0.1046480455
0.5100933650 0.2687260354 -0.3151504867
0.3343940642 0.2226671072 -0.2346716064
0.5259401963 0.1508387685 -0.3270969164
0.4066720954 0.1987576064 -0.2329735013
0.4034462684 0.2360332626 -0.2351663047
0.4064124855 0.2405721633 -0.2432241592
0.5181943067 0.2530913861 -0.2400522462
0.5742916774 0.2273907974 -0.3147569334
0.5899999738 0.1986518270 -0.3015054270
0.5869795678 0.1861226734 -0.2917823910
0.6020830264 0.2659755962 -0.2082356094
0.3941321605 0.1838010580 -0.2599999905
0.5989999771 0.2061592779 -0.2144600351
0.3816297406 0.2587312157 -0.3507958078
0.6228885141 0.2430179134 -0.1854615353
0.5988781090 0.2038375035 -0.2509955783
0.6044956626 0.2115628497 -0.2386659912
0.6327623859 0.1725292781 -0.0788118326
0.4959552841 0.1999696778 -0.2300359899
0.6068229116 0.1668871892 -0.1565595072
0.4707862166 0.2590000033 -0.3194034447
0.6185241576 0.2338736356 -0.2125006235
0.5044779542 0.1620000005 -0.1901102668
0.5836444598 0.2721321419 -0.2153723273
0.3924826090 0.1774486962 -0.3493537930
0.4966219940 0.2017511467 -0.2400078653
0.6290209699 0.2514421957 -0.1061753885
0.5758376308 0.1696887120 -0.2984602906
0.4126579720 0.2080546178 -0.2419832302
0.4495397988 0.2711072918 -0.3589836385
0.6413219031 0.2137068180 -0.1478142358
0.5929999948 0.1954519882 -0.2119356783
0.5493734375 0.1360000074 -0.2568736583
0.4715717668 0.1845264031 -0.2490408612
0.4978304157 0.1892489687 -0.1253248548
0.5051108359 0.2426619847 -0.2559583629
0.4206989684 0.2243821862 -0.2459554572
0.3936055106 0.2485221878 -0.2347620238
0.5472122287 0.1375754609 -0.2560613390
0.5228726050 0.1514490576 -0.3236226382
0.5889496072 0.1949152117 -0.2858310055
0.5026194523 0.2095234086 -0.2337048077
0.4819795582 0.2862574845 -0.1898978207
0.3495387932 0.1953121594 -0.2551241907
0.5500508040 0.1398026927 -0.3178662134
0.4824914464 0.1550000012 -0.2291325968
0.4612491407 0.2067919136 -0.1877806382
0.4022953736 0.2290554646 -0.2573548828
0.5575405563 0.2730000019 -0.2151162358
0.4170143464 0.2286501575 -0.2494328711
0.4808135303 0.1599968157 -0.2500103090
0.6293703249 0.1867770793 -0.1699181215
0.4833659013 0.1985074352 -0.2560568241
0.5579426797 0.1766959646 -0.1634129127
0.4097883804 0.1720021363 -0.2663175231
0.3559469047 0.2258606464 -0.2566777305
0.5514565239 0.1389094211 -0.2547456169
0.5986029124 0.2078000974 -0.2626620047
0.5044067922 0.2397428601 -0.2529421456
0.4998085584 0.2235954255 -0.2503190700
0.5821527340 0.2852163898 -0.1868885063
0.5032660999 0.2448270968 -0.2590451837
0.6023079147 0.2112556603 -0.2270958836
0.5094299956 0.1959044549 -0.2159293156
0.4994992413 0.1484996423 -0.2287509033
0.4951830253 0.1519267872 -0.2575330548
0.5340940671 0.1388116650 -0.2404714350
0.3890294391 0.1836642368 -0.2500555886
0.6375807147 0.2081660813 -0.1409678294
0.4037674908 0.2423137828 -0.2470966179
0.5072980406 0.1482942936 -0.2230095680
0.3606614069 0.2300393808 -0.2572309690
0.4242189383 0.2443814217 -0.1000375759
0.6240000129 0.2456812103 -0.2191557038
0.4717213810 0.1722266462 -0.2594234677
0.5789878236 0.2848185593 -0.1851356907
0.3567139704 0.2234102879 -0.2407503981
0.4877954454 0.1748365696 -0.2199999988
0.4272995759 0.1795999729 -0.3598326055
0.5773628923 0.1601217836 -0.0860823766
0.4176969428 0.1915102574 -0.2426166846
0.5893830577 0.1434610408 -0.1988474090
0.5519999862 0.2216356043 -0.3260360759
0.4277715558 0.1795484662 -0.3588711586
0.4282316342 0.2853518353 -0.1458795931
0.6524073649 0.2145452993 -0.1306789301
0.5333786679 0.1410000026 -0.2555508382
0.5776937916 0.2299508889 -0.2847047076
0.5554763395 0.1396351052 -0.2107249350
0.6534656693 0.1982637035 -0.1177409062
0.6161037265 0.2279536922 -0.2192497147
0.6000003141 0.2689999938 -0.2054068113
0.6009363013 0.1695198209 -0.1537004522
0.6110734778 0.2233051239 -0.2357280857
0.4993942745 0.2275961811 -0.2547182095
0.4718372839 0.3005200424 -0.1651767337
0.5348007276 0.1410000026 -0.2587177572
0.3833069370 0.2554197792 -0.2805641748
0.4307260689 0.1782097476 -0.3575802282
0.6018754582 0.2076207446 -0.2270707635
0.5632793867 0.1512595085 -0.2350993552
0.6097230154 0.2230453201 -0.2228068662
0.5860352144 0.2712505339 -0.2186886605
0.4139222631 0.2190537786 -0.2373724670
0.4835987299 0.1669198841 -0.2405352633
0.3229886774 0.1882359160 -0.2681162736
0.5644390850 0.1525793147 -0.2061516044
0.4406703775 0.1725768838 -0.2999816151
0.6393505734 0.2175200326 -0.0500637904
0.4090076884 0.1888140530 -0.2340852767
0.5031069009 0.1506284406 -0.2400077805
0.5546948709 0.1772329625 -0.1644261280
0.4061034315 0.2357615263 -0.2410320615
0.5872456229 0.1895565221 -0.3065568336
0.4092751726 0.1895255460 -0.2376277438
0.5898217470 0.1927840138 -0.2823971100
0.3816915213 0.1808482459 -0.2493252961
0.4988470303 0.1504611918 -0.2594548054
0.5644998280 0.1526248718 -0.2104889877
0.5565019567 0.1880375908 -0.3418725873
0.6192918623 0.2321531394 -0.2280420252
0.6014130533 0.2080217698 -0.2133167436
0.3823960472 0.2450000048 -0.2593190271
0.3350311995 0.2187451965 -0.2341406619
0.6403099119 0.2244750862 -0.0116373881
0.5426464151 0.2215941930 -0.3420519210
0.5004522573 0.2058454132 -0.2323219435
0.3236266738 0.2169579144 -0.3063555672
0.5432777136 0.2141457072 -0.3491728574
0.4666759690 0.2055025877 -0.1712435295
0.4960320249 0.1524312864 -0.2407188135
0.6526202541 0.1911139409 -0.0243752239
0.4947019777 0.2048625334 -0.2450000048
0.3740316109 0.2392218745 -0.2459940212
0.5372153963 0.2295276686 -0.3499243657
0.5714038383 0.2332302303 -0.2969226469
0.5930141641 0.1950236083 -0.2167200968
0.5073195609 0.1471747005 -0.2393678267
0.5821887551 0.2057464223 -0.3104777065
0.5190837412 0.2090997048 -0.2147607266
0.3839652297 0.2530506631 -0.3549420332
0.5971613843 0.2661972135 -0.2160690362
0.5990991445 0.2041652743 -0.2543036878
0.3441121207 0.2253306628 -0.3307440862
0.5647185598 0.1858049350 -0.3252010170
0.4215953164 0.2890584138 -0.1199999973
0.5416613616 0.2288924275 -0.3365814255
0.6229119428 0.1568148078 -0.1868448692
0.6431486525 0.2286820725 -0.1505472851
0.5791896579 0.1776494427 -0.2242010758
0.5798363763 0.1757273174 -0.2179783026
0.5250100610 0.1532559089 -0.3304432732
0.5024084750 0.2094706526 -0.2335583160
0.6141079081 0.2458791005 -0.1961887868
0.6019202554 0.2088671024 -0.2548704778
0.5059999824 0.2230815650 -0.2348720546
0.4166432292 0.2213340011 -0.2423732946
0.3761150476 0.2405944999 -0.2499587717
0.4441679347 0.1752985424 -0.3247419587
0.5960000157 0.2011060009 -0.2126527567
0.3875150711 0.1707045425 -0.2649999857
0.3935766089 0.1708404499 -0.2697801498
0.6270735455 0.2362726481 -0.1864160945
0.5741070386 0.1700356808 -0.2799851014
0.4322987795 0.3118997289 -0.1049999967
0.4232383897 0.2246850370 -0.0900000036
0.6298474729 0.1668796243 -0.1651525289
0.5711647462 0.3166907611 -0.1303612190
0.3892038256 0.1795514405 -0.2597782058
0.5766311275 0.2099615042 -0.3153441028
0.5909406371 0.1937607260 -0.3035853593
0.3678806955 0.1862941517 -0.2458742741
0.4392703282 0.2189501254 -0.1004872139
0.5329340971 0.1387499540 -0.2164033714
0.5929999948 0.1951128073 -0.2512440701
0.5069143357 0.2633962941 -0.3232813979
0.4918878213 0.1798362230 -0.2236062948
0.5859299798 0.2711825138 -0.2192041565
0.5158012361 0.1445300332 -0.2375662445
0.3512680773 0.2120482867 -0.2549999952
0.4459731224 0.1725681089 -0.2997976538
0.3552213473 0.2269523978 -0.2599228744
0.5387766518 0.2269322134 -0.3473057333
0.5031136486 0.1914814611 -0.2247643112
0.6237306946 0.1659490720 -0.1820187752
0.4842290882 0.1550000012 -0.2178375873
0.5399819477 0.1569564909 -0.1898008542
0.5880459645 0.1464880973 -0.1987999151
0.6249344776 0.2383673045 -0.2018365201
0.4251734916 0.2386613813 -0.1012559687
0.5770000219 0.1739079070 -0.2295165964
0.5366809560 0.1376178731 -0.2104980377
0.4970000088 0.2066197444 -0.2424667432
0.4758495091 0.2756981306 -0.1835841411
0.4833637787 0.1731787738 -0.2302537198
0.3683434478 0.1841615634 -0.2416728918
0.5973439606 0.2047919474 -0.2199741021
0.5491610088 0.1960820233 -0.3479733747
0.6062326594 0.2180544307 -0.2394840699
0.5009977042 0.1570000052 -0.3088834364
0.4111873797 0.2070911263 -0.2445187790
0.4985514932 0.1505794061 -0.2539891787
0.4272293081 0.2978089779 -0.1194397080
0.4724779817 0.1810615911 -0.2530385278
0.3249943029 0.1880870274 -0.2650094611
0.4922520768 0.1519999951 -0.2391249578
0.4999310873 0.2050914022 -0.2362521984
0.5796516677 0.1784194705 -0.2119746859
0.5226024257 0.1495281932 -0.3161795261
0.5041831533 0.1748375277 -0.2150000036
0.5899999738 0.1892235345 -0.2323594363
0.4745224026 0.1838195738 -0.2423534381
0.5329534495 0.1690077662 -0.0967312943
0.5437023139 0.2296103667 -0.3336462081
0.5546177636 0.1397543764 -0.2106370628
0.5010384355 0.1733053991 -0.2150000036
0.5985336353 0.2033782001 -0.2236573883
0.5766883540 0.1737765809 -0.3191603187
0.4917352880 0.1665340379 -0.2212557806
0.4061063094 0.2283769617 -0.2560383929
0.3634663476 0.1795675279 -0.2315371315
0.4415065060 0.1731044343 -0.3240818838
0.4125003217 0.1982137837 -0.2399999946
0.5902326274 0.1952338323 -0.3003877649
0.4061144680 0.2448887230 -0.2424920096
0.6202936806 0.2382639142 -0.2261771736
0.5277246293 0.2654492588 -0.2433566617
0.5778566232 0.1754276850 -0.2051884949
0.4177794611 0.2159260585 -0.2575810691
0.6179713129 0.2329808898 -0.2513926296
0.5178458012 0.3153101587 -0.1607798015
0.5544345711 0.2714004185 -0.2362760616
0.4937876700 0.2157873611 -0.2553538589
0.4733281514 0.1805728540 -0.2427864128
0.5030840357 0.1480930992 -0.2273911715
0.5219736426 0.2550020315 -0.2327687802
0.6082581492 0.2211936274 -0.2572474880
0.5768151694 0.1606269272 -0.0861127958
0.5356254904 0.1379999965 -0.2161233570
0.5913211011 0.1446137903 -0.1959655139
0.6102201618 0.2226651369 -0.2548335856
0.4850333566 0.1560475069 -0.2293848471
0.5446373544 0.1366745074 -0.2383137372
0.3283324173 0.2119451721 -0.3105540172
0.5865067325 0.1889597207 -0.2929719230
0.6121248097 0.2429681113 -0.2521636539
0.4659425182 0.2529385408 -0.3052765541
0.4649037778 0.1768080090 -0.1852405662
0.5220909973 0.2486708947 -0.2210851820
0.5170438213 0.2025240938 -0.2132602647
0.4160647987 0.2266257025 -0.2450037274
0.6530622728 0.2023194446 -0.0746210169
0.5100724468 0.1468879473 -0.2332673401
0.4867873228 0.1567698944 -0.2185250885
0.6189400643 0.2461552060 -0.2275726092
0.5026308930 0.1570000052 -0.3059137404
0.4149999917 0.1893158718 -0.2599393863
0.5590489474 0.1473985778 -0.2076773204
0.3566044429 0.2182088722 -0.2478739755
0.3914836871 0.1718730697 -0.2721826852
0.6464311600 0.2273718735 -0.0419028437
0.5646315457 0.1527236596 -0.2250207900
0.3812406575 0.2451667079 -0.2503243307
0.5580138325 0.1460184040 -0.2363897160
0.3461867961 0.1962082181 -0.2565633743
0.5891478870 0.2688309291 -0.2194957462
0.3628276039 0.1866332442 -0.2508776972
0.5066881487 0.1490309060 -0.2484954911
0.5969105068 0.2646766512 -0.2190214123
0.4336681713 0.2468620206 -0.1599999964
0.5751448430 0.1699727422 -0.2750000060
0.3770269323 0.1676493913 -0.3406224593
0.4850085653 0.2625383006 -0.3150657528
0.6111581100 0.2246874235 -0.2087244734
0.6524964719 0.2041569224 -0.0715128532
0.6509833752 0.1846423545 -0.1150832364
0.5765394368 0.1760976941 -0.3145690391
0.5269742957 0.2242267170 -0.3558884586
0.5512663029 0.1374655253 -0.2213361830
0.5963414490 0.2024792903 -0.2366225099
0.5154873259 0.1442760199 -0.2246057688
0.5764283899 0.1702378316 -0.2387323395
0.5036719351 0.1791215258 -0.2101770742
0.4260290679 0.2172116242 -0.2461304036
0.5099981875 0.1551915697 -0.1997605415
0.5897107754 0.1905179966 -0.2797029335
0.6234035153 0.2437867529 -0.2105992045
0.4706702714 0.2969106605 -0.1675881475
0.6169103195 0.2528002467 -0.2176121184
0.6232629380 0.2387763160 -0.2262284461
0.6056914390 0.2130593773 -0.2411523784
0.5899909733 0.1952455371 -0.2800112519
0.4093403395 0.1850155070 -0.2331129141
0.5967094781 0.2050738725 -0.2614098793
0.3830960319 0.2564352981 -0.3482533074
0.6128029553 0.2244342383 -0.2151245421
0.3297132716 0.2086302919 -0.3134655830
0.4653638807 0.2085462429 -0.1729558962
0.5759367006 0.1725822455 -0.2214975568
0.3475882238 0.2183400539 -0.2599999905
0.4021460487 0.1930128967 -0.2344487378
0.3705321174 0.1829065035 -0.2507947172
0.4134287455 0.1985433273 -0.2542702267
0.4886278230 0.2026278692 -0.2552480338
0.5137392684 0.2470669472 -0.2387120908
0.3517641342 0.1957327473 -0.2520597558
0.6270089284 0.1931276159 -0.0063010522
0.4691271815 0.2946663522 -0.1652977956
0.5090000033 0.2462657837 -0.2488725191
0.6019979158 0.2119965270 -0.2181749715
0.5111731315 0.1613245923 -0.1887443387
0.6241633506 0.2698075906 -0.1120992596
0.6122804752 0.2215565062 -0.2294920604
0.3765157203 0.1829999983 -0.2402330703
0.5146814033 0.2669794733 -0.3127825997
0.3787859522 0.1830085500 -0.2449786256
0.3702794922 0.2375527054 -0.2513042213
0.6240000129 0.1969886428 -0.1955188516
0.3553800949 0.1864601037 -0.2576109327
0.5974841332 0.2046061099 -0.2241232406
0.3996650683 0.2415968445 -0.2544339318
0.5184002906 0.2670564654 -0.3111419073
0.5799695055 0.1760926423 -0.2954093860
0.5150017583 0.2437724227 -0.3599985371
0.6281845225 0.2069116565 -0.1984871015
0.4087836160 0.2331520055 -0.2471682922
0.5721974601 0.2731589159 -0.2103575688
0.4205767593 0.2212877925 -0.2544064869
0.6438237701 0.2396739010 -0.1407637701
0.3722258374 0.2446800514 -0.2614101978
0.4492017566 0.1991879068 -0.1989985457
0.6257611151 0.1643818906 -0.1098231248
0.4932866103 0.1503039299 -0.2291627960
0.4823721100 0.1556699076 -0.2150000036
0.5090000033 0.2282250342 -0.2302573364
0.6048851960 0.2636369690 -0.2119902551
0.4225358097 0.2208058620 -0.2418058598
0.3239176543 0.2066155061 -0.2652407464
0.5940268298 0.1997113771 -0.2201023270
0.5048866650 0.1474408457 -0.2366593711
0.5709999800 0.1636374989 -0.2210091179
0.6120832409 0.2436495367 -0.2486639309
0.5571598930 0.1418798320 -0.2053644185
0.4284492749 0.2799319310 -0.3599149263
0.4708211800 0.2048111628 -0.1742054079
0.5929391718 0.1967357473 -0.2796434909
0.4870260421 0.1557781964 -0.2530545130
0.5925168565 0.1921947773 -0.2311648254
0.5074058747 0.1973431125 -0.2233778397
0.6434009658 0.2321227494 -0.1429951762
0.5157484546 0.1430900625 -0.2299689211
0.3821458465 0.2375968731 -0.0310934641
0.5743243290 0.1674890830 -0.2956349530
0.6274208192 0.1555324825 -0.1194857751
0.5432704526 0.1379999965 -0.2446246671
0.4140411390 0.2146003079 -0.2598601212
0.4019886893 0.2429260650 -0.2525203825
0.4176753170 0.2232893648 -0.2334429306
0.6135014138 0.1459013078 -0.1864503467
0.5989999771 0.2189966255 -0.2677925710
0.3757822949 0.2379732096 -0.2449330149
0.3763923937 0.1701818597 -0.3437894537
0.5926308074 0.2682613555 -0.2194608113
0.5894149537 0.1972108861 -0.3051054285
0.5941170391 0.2661355964 -0.2273305069
0.6445770188 0.2305560643 -0.1400000006
0.5770000219 0.1722528574 -0.2363531533
0.6175815972 0.2297011639 -0.2343064391
0.4274506064 0.2931127049 -0.1182421949
0.6156470305 0.1488432660 -0.1867054288
0.6206168013 0.1586406089 -0.1162870658
0.6168220968 0.2291586601 -0.2310091632
0.5349676965 0.1392071596 -0.2420119331
0.4100823589 0.2309865249 -0.2449775359
0.3877408552 0.1789060190 -0.2563913845
0.3989432698 0.1964928456 -0.2300000042
0.3993326921 0.2708401455 -0.3590821438
0.6117934583 0.2521271540 -0.2292777615
0.6124297952 0.2497196007 -0.1960466610
0.4097741535 0.2265932473 -0.2421610337
0.5899999738 0.1996694812 -0.2840861784
0.5946155934 0.2006926420 -0.2082918036
0.5754899435 0.1717797900 -0.3014139442
0.5518877696 0.2286296328 -0.3248467439
0.6136622096 0.2256323516 -0.2101493905
0.4261164242 0.2251422290 -0.2496736528
0.5214656510 0.1433662400 -0.2316890436
0.5965510437 0.2000317689 -0.2329100350
0.6212281248 0.2353041740 -0.2138526349
0.6086007207 0.2218009809 -0.2117278964
0.4979895079 0.2073648715 -0.2392629966
0.4043129896 0.1964466077 -0.2320388381
0.4531123232 0.1988942316 -0.1949999928
0.4623234389 0.3197306494 -0.0951352162
0.5060518090 0.2230345556 -0.2309134198
0.5472249909 0.1362268288 -0.3153765156
0.3830730827 0.2164258964 -0.0503654759
0.3795869087 0.1701738048 -0.3420256776
0.6504282921 0.1773556381 -0.1150000021
0.6150680102 0.2270680361 -0.2365856178
0.4620886211 0.2107782284 -0.1871064601
0.4092743849 0.2023572588 -0.2331537212
0.4272490082 0.2192853036 -0.2511794276
0.5731704570 0.1686174395 -0.2373339440
0.3796950403 0.2432040083 -0.2433464048
0.4804818992 0.1630361991 -0.2942745386
0.3470000029 0.1795837531 -0.3234963135
0.5766433732 0.1705244746 -0.2786362050
0.5932108163 0.1953513604 -0.2088082437
0.5647852207 0.1527136304 -0.2184512683
0.3636804232 0.2302186106 -0.2521992930
0.5093367340 0.1932470560 -0.2149945092
0.5104799188 0.2522389043 -0.3397857506
0.4762795281 0.1936264545 -0.2449477644
0.4775730743 0.1880919248 -0.1155730783
0.4870031000 0.1850238250 -0.2350345426
0.6390746792 0.1773340892 -0.1050603462
0.6240076475 0.1594567027 -0.1853366687
0.6005148733 0.2065248107 -0.2568913863
0.6419724367 0.2116127493 -0.1449999958
0.5900475730 0.1493726778 -0.1986527901
0.5513461626 0.1364430992 -0.3161077322
0.5239266552 0.1420733363 -0.2204856742
0.5790373150 0.1753582106 -0.2214664273
0.3670422729 0.2495173285 -0.2772696380
0.4689102776 0.1902368897 -0.2599999905
0.6179579587 0.2338520556 -0.2450000048
0.6315023754 0.2493317630 -0.1050164422
0.5190616101 0.2414999057 -0.3575705276
0.5470551068 0.1360628221 -0.3149427948
0.4704791737 0.1872939496 -0.2587060452
0.6371815390 0.2568575260 -0.1528554221
0.6258913705 0.2423954182 -0.2085574906
0.3560546767 0.2206581134 -0.2538424380
0.5624155716 0.2734872225 -0.2199189775
0.5593263441 0.1866926057 -0.3283930059
0.3666193814 0.2272010598 -0.2409479298
0.6080362619 0.2180301881 -0.2250701981
0.3833111812 0.2546477939 -0.2839203513
0.4849437423 0.1981365315 -0.2590495120
0.3614038779 0.1769634206 -0.3318005795
0.4349670144 0.2504046618 -0.1559142940
0.5970775159 0.2044366825 -0.2117487785
0.5251743061 0.2577169355 -0.2300732691
0.4903785802 0.1553337891 -0.2541655279
0.5092007595 0.2392433111 -0.2342802652
0.5631880185 0.1626395576 -0.0934011107
0.6394641584 0.2215910688 -0.0105801983
0.4271755146 0.2799099062 -0.3597747762
0.5794846888 0.1781411681 -0.2075407603
0.4490728378 0.2695987458 -0.3549999893
0.3808538574 0.2458862618 -0.2420535826
0.5635355867 0.1510474662 -0.2147437254
0.4848703374 0.2683112333 -0.3561479325
0.5738724610 0.1667874309 -0.2559637212
0.6437878922 0.2304493543 -0.0432444413
0.4005676632 0.2799654270 -0.3545204326
0.5339856153 0.1410343985 -0.2462465163
0.4726296640 0.2948673110 -0.1693275913
0.4937448266 0.1653823748 -0.2245747244
0.4858333504 0.1552979435 -0.2150000036
0.3727924479 0.2390565922 -0.2427758838
0.4970000088 0.2244326944 -0.2544636619
0.4008643758 0.1808066419 -0.2321984991
0.5577635557 0.1910788234 -0.3400263946
0.5960058458 0.2030077676 -0.2087550504
0.5960000157 0.2058115529 -0.2648472840
0.4274932776 0.2866121737 -0.1490304390
0.5770000219 0.1733765303 -0.2598593119
0.4981707190 0.1727525672 -0.1049999967
0.4861540729 0.1862256310 -0.2376822215
0.5805964921 0.1769941724 -0.2304225490
0.6165233411 0.2305389164 -0.2251910170
0.5496340295 0.2314593122 -0.3249999881
0.5874498561 0.2016477868 -0.3056003393
0.4912030123 0.1969577592 -0.2423308192
0.4720000029 0.1791311023 -0.2562660436
0.3971490332 0.2352387749 -0.2330767990
0.4200878496 0.2138475198 -0.2399999946
0.5646945308 0.2735320462 -0.2099999934
0.4210000038 0.1915403979 -0.2455650097
0.4104875752 0.2672163231 -0.3269461967
0.4129887466 0.2086460241 -0.2467136541
0.4712725667 0.1827257244 -0.2450000048
0.5406517415 0.1659783756 -0.3432625953
0.6161768694 0.2369764127 -0.2552509019
0.3538511804 0.1757162687 -0.3398860358
0.6366319255 0.1993069806 -0.1443865026
0.6412120968 0.2349284821 -0.1524599590
0.3475187475 0.2109529851 -0.2564185646
0.4231629836 0.2418260904 -0.1023760400
0.5996323541 0.2080539556 -0.2447649630
0.5613814683 0.1885976381 -0.3249999881
0.5223617399 0.1432553103 -0.2255213093
0.3704954528 0.1807505771 -0.2537539773
0.4788589459 0.2712754464 -0.2693036175
0.4863176413 0.1671936557 -0.2369517639
0.5213563037 0.1503903088 -0.3209757543
0.6160262091 0.2382896416 -0.2477246532
0.4198470586 0.2157664095 -0.2556363430
0.6168076599 0.2306148421 -0.2080127848
0.5236131803 0.2395017764 -0.3541783150
0.6087171380 0.2415791234 -0.2599999905
0.6126248486 0.2243405739 -0.2237011855
0.3879304089 0.1873222668 -0.2440203475
0.6233782035 0.1960024407 -0.1986747046
0.4796361513 0.2820203481 -0.1861847835
0.3551194705 0.1919851559 -0.2519708708
0.5750503201 0.1700109214 -0.2599999905
0.3751869823 0.2410448007 -0.2426996372
0.3471469370 0.2076201493 -0.2554122502
0.5933321405 0.1985535707 -0.2172577901
0.5737809539 0.1668539661 -0.2516379465
0.6238719580 0.1914792990 -0.1951722711
0.3859071625 0.2574352004 -0.3468031245
0.4966731092 0.2067820702 -0.2425502776
0.4127779001 0.1954785899 -0.2586534823
0.3457492025 0.1940588229 -0.2597187918
0.3613707202 0.1834925016 -0.2599999905
0.5799999833 0.1795953110 -0.3096455369
0.6131183561 0.2841216154 -0.1434319482
0.3982572402 0.2766845635 -0.3546644946
0.6225388557 0.2370670381 -0.2174606430
0.4514726762 0.2015959237 -0.1971061033
0.5830000043 0.1856851720 -0.3100109531
0.5243286291 0.2657762192 -0.2501195014
0.5407479501 0.2172606699 -0.3482407032
0.3535528200 0.2206782188 -0.2399999946
0.3928094160 0.1905842397 -0.2599999905
0.5027241955 0.1745330413 -0.2104597003
0.4810433151 0.1920433214 -0.2550573344
0.5638919815 0.1517561675 -0.2293209314
0.5872949771 0.1936015547 -0.2882640004
0.5478790963 0.1373736339 -0.2441527557
0.4809446279 0.2784229333 -0.1790382106
0.4909999967 0.2111981797 -0.2595224774
0.3563596436 0.2406914655 -0.2303318349
0.5216572629 0.2526290214 -0.2300001074
0.4679074088 0.1900361898 -0.2568209855
0.5086798728 0.1999842644 -0.2249999940
0.6128150090 0.2273374829 -0.2416562147
0.5928364532 0.1954298801 -0.2295040889
0.6150392938 0.2345753857 -0.2500000000
0.3668612137 0.1802898262 -0.2602845832
0.4717129493 0.1925145860 -0.2447262510
0.3230569702 0.1786616210 -0.2786787885
0.4830268048 0.1924023947 -0.2472703364
0.5772764104 0.2214839044 -0.3144355879
0.6174375163 0.2320625598 -0.2473121449
0.6386509187 0.2016241495 -0.1653490865
0.3922857890 0.1860258721 -0.2599999905
0.6492546158 0.2589872860 -0.1299999952
0.6138986747 0.2347459031 -0.2539434111
0.5458976866 0.1379999965 -0.2352570682
0.3839516082 0.2588103443 -0.3492967912
0.3918844482 0.1839972747 -0.2562654360
0.5743995465 0.1705327246 -0.2328468909
0.5112949368 0.1553960108 -0.2000000030
0.6360511236 0.2574531938 -0.1462006141
0.5090000033 0.2329874387 -0.2349252290
0.5460000038 0.2185867702 -0.3378273836
0.5196708982 0.2250124740 -0.2164130176
0.5770000219 0.1735779306 -0.2509822747
0.4832698018 0.2001223364 -0.2599999905
0.6400187630 0.2355779932 -0.1494079274
0.5029259668 0.1717108194 -0.2101234164
0.5376061196 0.2690828516 -0.2574612108
0.5509149913 0.1365556670 -0.3163891528
0.5028766049 0.1480000019 -0.2311298177
0.3664416524 0.1849185976 -0.2502035114
0.5564783499 0.1419855596 -0.2318859147
0.5168504880 0.2459056157 -0.2336775259
0.5232143408 0.2413758764 -0.3511479008
0.6132723516 0.2383687205 -0.2520379330
0.5289485836 0.1520513966 -0.3341329600
0.3823173764 0.2543246141 -0.2800361463
0.5927871641 0.1956034180 -0.2759764919
0.3830451729 0.2561912631 -0.3518111520
0.4977330952 0.2039774475 -0.2334257400
0.5640693899 0.1523020448 -0.2598924267
0.3590094494 0.1734673752 -0.3357499645
0.4870993964 0.1549727654 -0.2317869398
0.4948563267 0.2037477478 -0.2417496348
0.5701163864 0.1695932076 -0.1220108103
0.5524727563 0.1382093910 -0.2330340076
0.5837164006 0.1833258795 -0.2322326754
0.5711084592 0.1621807978 -0.2432038313
0.4249958186 0.2952144660 -0.1194804867
0.6081466679 0.2211100165 -0.2528688596
0.6403822674 0.2110293343 -0.1479043739
0.6196261154 0.2357102228 -0.2162880366
0.5047545783 0.2677350579 -0.3187240699
0.4999163561 0.1500169022 -0.2316117433
0.4290435870 0.2799128079 -0.3501289746
0.5734223700 0.2777673145 -0.2052326808
0.5598049888 0.1473537385 -0.2104037019
0.4029198429 0.1900360497 -0.2557715454
0.3713690582 0.1785000063 -0.2572363696
0.5991567460 0.2072612817 -0.2333729985
0.4900700301 0.3114817198 -0.1237956761
0.5260815783 0.2395665783 -0.3512325949
0.5492220163 0.2713118474 -0.2357796211
0.6155114379 0.2322404916 -0.2599999905
0.4713287981 0.1919933629 -0.2576270249
0.3673757976 0.2687950954 -0.0348076498
0.4932221682 0.2156459964 -0.2563924101
0.5302652767 0.1424694198 -0.2455345747
0.5033205966 0.1778276026 -0.2148181123
0.4079008207 0.2420991708 -0.2459346952
0.3592177575 0.2439111550 -0.2316045526
0.6261164849 0.2464195995 -0.2099999934
0.4136524307 0.2023629308 -0.2465627240
0.5252606178 0.2779999971 -0.2657517889
0.6144700692 0.2853469573 -0.1456624212
0.3840000033 0.2609535298 -0.3529592274
0.4971181472 0.2241197267 -0.2548030976
0.4926896453 0.1805831975 -0.2247338543
0.3663126322 0.2609930693 -0.0067184498
0.4007310764 0.2362307997 -0.2379168841
0.5647783529 0.1845058627 -0.3249999881
0.5734296626 0.2312543177 -0.2950534891
0.5108436421 0.1480000019 -0.2156532601
0.3810128001 0.1839304355 -0.2426739118
0.6026879584 0.2128646243 -0.2441166615
0.5895577684 0.1946334206 -0.2947672198
0.5869793005 0.1860414286 -0.2832851233
0.4256308447 0.2160000056 -0.2430639382
0.5188847731 0.1430000067 -0.2284259999
0.6019963594 0.2119939331 -0.2105853075
0.3952332268 0.2377427175 -0.2304927743
0.5007203782 0.1500000060 -0.2471338303
0.5819156341 0.2713172872 -0.2302208470
0.3861239265 0.2444228517 -0.2565187987
0.5749634032 0.1707750224 -0.3068879310
0.5493612276 0.1381423207 -0.2523831382
0.3227270469 0.1787892864 -0.2822734078
0.4812845755 0.1640711266 -0.2305336430
0.4349227407 0.2511889832 -0.1551287709
0.4735909636 0.1910800799 -0.2432299202
0.5714225596 0.1652817228 -0.2253435651
0.5574204142 0.1422271919 -0.2081596648
0.4937424567 0.2093699547 -0.2559708514
0.4144680981 0.2232607940 -0.2556160042
0.3489780419 0.1927653875 -0.2572897846
0.6039468332 0.1654737194 -0.1596064366
0.6213338212 0.2381112797 -0.2146203658
0.5723152549 0.2705992403 -0.2566938585
0.5559462033 0.1706746609 -0.1245474245
0.6237514581 0.1633456767 -0.1845738555
0.5827085629 0.1842312653 -0.3126240709
0.3456954623 0.2254223990 -0.3334033668
0.4753361613 0.1718272885 -0.2505602798
0.5543651560 0.1387210358 -0.2302674144
0.5078746679 0.1738359367 -0.1010744963
0.5237283263 0.1422716688 -0.2214409538
0.5176011799 0.1430000067 -0.2325119550
0.6399645804 0.2080759508 -0.1449409863
0.6119651703 0.2519395355 -0.2325640901
0.3942946754 0.1742582777 -0.3462272553
0.4695268464 0.1859203532 -0.2509133023
0.6439343154 0.2153923939 -0.1410879090
0.3244295882 0.2102581830 -0.2649999857
0.3594436560 0.2442371579 -0.2320306600
0.5713743418 0.2696882376 -0.2596648100
0.3622786485 0.1829999983 -0.2568660056
0.6154627285 0.2266169639 -0.2254132122
0.5954511531 0.1988228357 -0.2247412350
0.5005589849 0.2424672378 -0.2595341688
0.5961839460 0.2030367136 -0.2311650230
0.5435073153 0.1378559620 -0.2517941233
0.5179627850 0.2660000026 -0.3149922665
0.3920184501 0.1912608673 -0.2426965367
0.6466821959 0.2328417519 -0.1414996962
0.6240000129 0.2417158806 -0.2241226292
0.5099505236 0.1451284611 -0.2397858865
0.6105726904 0.2639436924 -0.2051407631
0.5575708346 0.1452846810 -0.2095661178
0.4059687154 0.1937156065 -0.2303469491
