0.4901002384 0.3254560807 -0.0676314214
0.3437918745 0.2901550745 -0.0606637868
0.6114748201 0.2771643313 -0.1487998048
0.5403481624 0.2964397709 -0.0624148775
0.4755316324 0.1850573396 -0.0729383112
0.3480564904 0.1687652241 -0.3248387095
0.4309235415 0.2121989186 -0.0652395513
0.4695109537 0.3418818858 -0.0216627940
0.4634951817 0.1871744395 -0.0308429550
0.3395075067 0.3592391484 -0.0253232544
0.3997884461 0.3632201993 -0.0245329013
0.5153172209 0.1894748567 -0.1305578860
0.5693855847 0.1994877859 -0.1826664678
0.5107252064 0.1523659202 -0.3045609757
0.4311289174 0.2478550109 -0.0424942564
0.3210218729 0.1997492879 -0.2670959681
0.4531686873 0.1918325926 -0.0998728103
0.5537148858 0.1380007094 -0.2455094237
0.5311564309 0.3055850162 -0.0864625458
0.5814271105 0.3150736771 -0.1310807966
0.5883620453 0.2734857559 -0.0148019765
0.6022648023 0.2190828675 -0.0429648471
0.5011753413 0.3083003679 -0.0383298294
0.6332590707 0.2250984432 -0.1397571164
0.5978855292 0.2036285080 -0.2075848019
0.5460731539 0.1493820172 -0.3310425123
0.4594059222 0.1791637609 -0.1858376582
0.5936043810 0.1404260067 -0.1929696360
0.3907310018 0.2831941678 -0.0919458067
0.5209367574 0.2244418710 0.0000000000
0.3711513586 0.2717130743 -0.0041807598
0.5550124904 0.1392207009 -0.2976932016
0.5302003608 0.1426817778 -0.2954699749
0.5707540172 0.2770519656 -0.0559095819
0.3518642273 0.1843632482 -0.3419861163
0.5894893120 0.1982256246 -0.3160425759
0.5428300267 0.2232405387 -0.3442967371
0.5800333132 0.2967784975 -0.1062300669
0.5012193159 0.1710000038 -0.0928751704
0.4877937352 0.2753224955 -0.2802463358
0.3594108137 0.3308477401 -0.0653423445
0.5998603477 0.2432247571 -0.1817527623
0.4587106256 0.1713425818 -0.1914882567
0.3581345889 0.2072757225 -0.3449769577
0.5967061398 0.1806246734 -0.2274537686
0.4256333588 0.2315024359 -0.1390872906
0.4144995425 0.2680204375 -0.3600000143
0.4727168538 0.1713590356 -0.0265559518
0.4657970311 0.1769959042 -0.0819121635
0.5733171206 0.2234628250 -0.3173458843
0.5342279072 0.2691177887 -0.0335030787
0.5759908245 0.1613525066 -0.1672751769
0.4571777263 0.1696765539 -0.3440658696
0.6578780212 0.2585574779 -0.1392302606
0.6099412111 0.2193875402 -0.0605078841
0.5436225581 0.2225586550 -0.1930417743
0.4145932680 0.1949588648 -0.0596687347
0.5646448591 0.1641845993 -0.1048882395
0.5381005183 0.1409800916 -0.3157904366
0.5155044805 0.2674398966 -0.3150952481
0.5948748259 0.2025209015 -0.3008496152
0.4465077222 0.2724411423 -0.3600000143
0.6279443654 0.2835881197 -0.1407251637
0.5815064846 0.2497663802 -0.0092300870
0.5442764698 0.1664804692 -0.1399026623
0.4537654215 0.3410002088 -0.0737941870
0.5016112899 0.1633163355 -0.3573576378
0.6390230443 0.2794615106 -0.1209990021
0.5707450464 0.2929306982 -0.0686332279
0.4095506276 0.2111317636 -0.2087406208
0.4008867829 0.2658310741 -0.3600000143
0.5192926203 0.2843177085 -0.2594187079
0.4665823501 0.2442186079 0.0000000000
0.5600432073 0.1767926694 -0.3427274336
0.5647852647 0.2252631562 -0.2076168613
0.5643796608 0.2819950240 -0.0249840639
0.5169573519 0.2883052815 -0.0310543617
0.4650752439 0.2584871105 0.0000000000
0.3680297764 0.3515394556 -0.0662747657
0.5501114043 0.1601208949 -0.0843656785
0.5575902617 0.2537311376 0.0000000000
0.5598411669 0.2109128140 -0.1899887242
0.4611118185 0.2710287099 -0.2041371103
0.5011344972 0.3058818671 -0.1912059522
0.3899400296 0.2529549596 -0.0768640711
0.6628062116 0.2509210847 -0.0932228227
0.6190691366 0.2686679300 -0.1937893352
0.6695161934 0.2024527266 -0.0875450623
0.6684227622 0.2428715398 -0.0875756077
0.4733075472 0.1590837326 -0.2570771785
0.4081166238 0.1723778948 -0.2580404999
0.6219674637 0.2160273134 -0.0019113422
0.4154760136 0.2435953463 -0.1222379770
0.4265204469 0.2286625480 -0.0804047045
0.4240799871 0.2284507400 -0.1793428352
0.5988730788 0.2379102613 -0.0242791446
0.4163273380 0.2602462737 -0.1921498953
0.3285987250 0.3398071848 -0.0586597785
0.4331027344 0.1944174471 -0.1864219073
0.5986910741 0.3007610041 -0.1743711523
0.5712051442 0.1653419442 -0.2240100712
0.4957483217 0.2749022837 -0.2957005456
0.5174152565 0.1980674803 -0.3600000143
0.6184303559 0.2068138536 -0.2181288389
0.4474272549 0.1727543600 -0.3528172262
0.4981491950 0.3215693527 -0.0757292017
0.6316697988 0.2436381192 -0.1488176738
0.5633221005 0.1620000005 -0.0528324402
0.6250865375 0.2478748415 -0.2160557275
0.5027823397 0.2648062178 -0.3350749592
0.5487777561 0.2402244493 -0.2079373364
0.4666545067 0.2293777373 0.0000000000
0.5240013858 0.2202471334 -0.1792812886
0.6460349224 0.2046924714 -0.0138709651
0.3983161290 0.1863425511 -0.3600000143
0.5053590301 0.1754502614 -0.0346256647
0.6443310582 0.1736854487 -0.0372229924
0.4723059722 0.1711681593 -0.0384254009
0.3582534589 0.2280021806 -0.3443203363
0.5411129300 0.3073295538 -0.0922733922
0.5013420004 0.1681352390 -0.1430913660
0.3974303539 0.3360725104 -0.0804429659
0.6058537236 0.2608634053 -0.0766568483
0.4867944823 0.1828509392 -0.3600000143
0.5870146175 0.1662502301 -0.2324859277
0.5854134647 0.1837335159 -0.2963552458
0.5238173078 0.2671188008 -0.0347851379
0.5783391312 0.2867052549 -0.1982640572
0.5458299178 0.1360000074 -0.2636469507
0.4016925320 0.1708644552 -0.2844686655
0.4421967312 0.2003983324 -0.3582391710
0.6666777520 0.2286173473 -0.1665963780
0.4696083748 0.2830841609 -0.1201499255
0.6158812070 0.1504780767 -0.1498277727
0.4969991376 0.1890400452 -0.1194601044
0.4458954062 0.2644519041 -0.2333998118
0.3909399274 0.1969048191 -0.3599863608
0.5324168825 0.1724707504 -0.0337419303
0.5745980417 0.2475614186 -0.2021855751
0.4597766812 0.2193213858 0.0000000000
0.5608650536 0.3170443769 -0.1000150827
0.6473616409 0.1799634329 -0.0262005495
0.5537834410 0.3077217893 -0.1615725850
0.5824428808 0.3121609917 -0.0940310093
0.3621288278 0.2887508586 -0.0049994743
0.3657908907 0.2488027946 -0.0123136988
0.3597850413 0.1678078218 -0.2895572313
0.4566441260 0.1662538815 -0.3124563408
0.4216801525 0.2080830870 -0.0843253636
0.4728083334 0.1625742829 -0.2984486677
0.3493427084 0.2287018845 -0.2300000042
0.4534658929 0.2340865765 0.0000000000
0.5930921890 0.2398501196 -0.0153381333
0.6245621849 0.2263915154 -0.1073433960
0.4719778660 0.2689601075 -0.0807048450
0.4199276630 0.2380139061 -0.1289416464
0.6706538275 0.2263450112 -0.1315998017
0.4293084595 0.2638487481 -0.3200724267
0.4030374165 0.2088520552 -0.0034014864
0.5210215080 0.1833966281 -0.0163724315
0.5813024313 0.1774536242 -0.2895038365
0.5925016497 0.3023189953 -0.0806909604
0.4677480332 0.1721706827 -0.0523026225
0.4431615224 0.3491180809 -0.0041258768
0.4364182557 0.1904243466 -0.0757707512
0.4817561529 0.2855328891 -0.1275699867
0.5533238992 0.2715831793 -0.0253937817
0.4849430166 0.1850869211 -0.0907368665
0.3353436417 0.3501932324 -0.0248713433
0.4733065803 0.1889332725 -0.0822427817
0.3318734450 0.2093970299 -0.3176371666
0.3874682810 0.2570021599 -0.2927385065
0.5449104835 0.1360160799 -0.2351262100
0.3665140752 0.2516207172 -0.2634387287
0.4758234176 0.2038403646 -0.1140705771
0.4066319618 0.2284980560 -0.0883577620
0.6703832125 0.2112671063 -0.1337933412
0.4653996380 0.1649073923 -0.2895934601
0.6510361193 0.1741616127 -0.1785916286
0.4972943621 0.1647721376 -0.0118003760
0.5838416889 0.3113059915 -0.1145943143
0.4907487711 0.3033990588 -0.1881507129
0.6702423175 0.2333654798 -0.0733522832
0.6180283436 0.2350472869 -0.2514264170
0.4365617109 0.2054098258 -0.0011358056
0.5036317830 0.2187126880 -0.1599257274
0.3924969338 0.3269714533 -0.0841193587
0.3710466334 0.2551364733 -0.2111603036
0.4142710732 0.1750229791 -0.3480919360
0.5318944734 0.3199999928 -0.1406851200
0.5174328905 0.1445671216 -0.2202337427
0.3801051130 0.2513912959 -0.2259867871
0.3723624723 0.2535880862 -0.2470583353
0.3896068283 0.2595044564 -0.2823905904
0.3986363883 0.3635999255 -0.0649999976
0.6281165765 0.2251907322 -0.0964432566
0.5921728791 0.1941728737 -0.2126286148
0.3689554481 0.1856285496 -0.3535688297
0.4765750120 0.2127114836 0.0000000000
0.3421076253 0.2299276621 -0.2687443366
0.3726645184 0.2219791773 -0.0474968605
0.4721797929 0.2875304786 -0.1927763654
0.5346130634 0.1441632145 -0.1978814359
0.4851742212 0.1694351167 -0.0688242019
0.4036111175 0.1743088699 -0.2484556621
0.4884656498 0.2467216832 -0.1494973114
0.5398902943 0.2110056217 -0.3529341534
0.5391232358 0.3178877159 -0.0864439733
0.5993475356 0.3054010200 -0.1334632418
0.4817218384 0.2756754679 -0.1288570040
0.4514391032 0.2660805501 -0.2216853775
0.5417763311 0.2665409036 -0.0286570164
0.5436538356 0.1429010260 -0.3244885394
0.4313952847 0.1973293108 -0.0463084304
0.4701858653 0.1770390577 -0.1640253494
0.4126586872 0.2838932287 0.0000000000
0.6078345071 0.2207517900 -0.2148217324
0.6178629650 0.2283412270 -0.0770972890
0.4834523638 0.1588409670 -0.1980698382
0.4339449916 0.2222650464 0.0000000000
0.5092823739 0.2246487040 -0.1656987505
0.4236634184 0.3051327198 -0.1224709201
0.3480897475 0.1975700030 -0.2300000042
0.4832814249 0.2862818920 -0.2268008727
0.6490473680 0.1989573365 -0.1853568455
0.4686073844 0.2497356789 -0.0876889109
0.4976660066 0.2714030156 -0.0241397868
0.4868807555 0.2679335112 -0.0339071325
0.5336958706 0.3088941346 -0.1898532913
0.4918017851 0.1713478244 -0.0521349588
0.6493693708 0.2350172004 -0.1871122684
0.4827098477 0.3127476209 -0.0114827725
0.4901461668 0.2767530174 -0.1451786919
0.3899400604 0.3642079574 -0.0597388547
0.6079999804 0.2499029258 -0.2454047932
0.5197553503 0.1496223266 -0.3194960084
0.4113895422 0.3176318568 0.0000000000
0.4565213720 0.1638020873 -0.2336837680
0.4769686350 0.2392519688 -0.3600000143
0.5926256730 0.2525257744 -0.0390443073
0.3718897571 0.2272248220 -0.0384076875
0.4094305771 0.3631169226 -0.0672209819
0.3828871518 0.3113851165 -0.0009997302
0.4113022500 0.2102234237 -0.0746559597
0.6518284592 0.1834573778 -0.0427469885
0.6161025203 0.2421085127 -0.2416392720
0.5764679092 0.3022550520 -0.1222006353
0.3497230880 0.1731395350 -0.3341226287
0.4314397378 0.2489314448 -0.0297618941
0.6572978903 0.2189975051 -0.0424935996
0.3392122279 0.1821086734 -0.2543789176
0.3540570151 0.3432877024 -0.0641771619
0.6209078009 0.1937017406 -0.2030022905
0.5693775730 0.1493817961 -0.0252173519
0.6104938322 0.1895771560 -0.0552739556
0.5404246773 0.2753938284 -0.2571138473
0.3846160404 0.2629237748 -0.3473312716
0.4881585833 0.2371611293 -0.1535942521
0.6170533888 0.2583791052 -0.2064183072
0.5676254457 0.2786988158 -0.1911390558
0.4331001319 0.3178263023 0.0000000000
0.5838285085 0.1706201143 -0.1089322633
0.3347394156 0.2871797759 -0.0537550143
0.5691286740 0.1903556401 -0.1714541035
0.4265271822 0.1799268412 -0.2181545054
0.3481250686 0.2928797773 -0.0191892946
0.4845025621 0.1553316348 -0.2478231383
0.5783516696 0.2696891093 -0.2466652577
0.3679184548 0.1749655707 -0.2468482028
0.5929539724 0.2116593671 -0.1911347972
0.4836540083 0.2750268304 -0.0839500102
0.4409321251 0.2054944263 -0.1610794880
0.5987817340 0.1916638152 -0.0951754480
0.3877957250 0.1729999930 -0.3021244168
0.3927306417 0.2235480037 -0.0751089098
0.3836973400 0.2469026259 -0.2174658784
0.6085435215 0.2192765254 -0.2681698310
0.5374208807 0.2775308236 -0.0396913793
0.5267002061 0.2497472307 -0.1895224700
0.6263941620 0.2479222061 -0.1574047149
0.3931259304 0.2551392455 -0.2503080607
0.6428290495 0.2734558782 -0.1032796417
0.5434569245 0.1354050093 -0.2048945974
0.4405477295 0.1804917042 -0.3593275303
0.6292507677 0.2861047514 -0.0958443661
0.4825525059 0.2032160281 -0.1232808058
0.4591070237 0.2708908277 -0.2451332665
0.5347463803 0.2591433172 -0.3149669700
0.4768130165 0.1626411149 -0.3219975530
0.4761451025 0.1956958926 -0.0121085189
0.4112381761 0.2533780272 -0.1379807934
0.4785580624 0.2794049403 -0.2422621651
0.5596308839 0.1519323495 -0.0306842045
0.5095176008 0.2350270985 -0.3600000143
0.4789749839 0.3152156364 -0.1515371516
0.5917702896 0.1896557081 -0.1180757228
0.5066455319 0.1584737636 -0.3342138547
0.4247303074 0.2673183695 -0.3600000143
0.4129061288 0.2048009716 -0.0031691000
0.4651765965 0.2185437105 -0.1198101125
0.3827906835 0.2115179869 -0.2300000042
0.4651173252 0.1610446840 -0.2296818662
0.4105706642 0.2961115654 0.0000000000
0.5913896317 0.2019707125 -0.1970455533
0.3360494061 0.3461125956 -0.0546310956
0.5987585409 0.1972503500 -0.0001364507
0.4532985798 0.1751855446 -0.3600000143
0.3994523778 0.3182084228 0.0000000000
0.5053625779 0.1668094166 -0.0735816023
0.3952609901 0.2634887371 -0.3257072424
0.5969321005 0.2713662206 -0.0214440367
0.6038006770 0.2320008351 -0.2002336645
0.4590733935 0.1924169300 -0.1201402293
0.4894239054 0.3220552835 -0.0851933628
0.4044526718 0.2482461670 -0.1700662216
0.4163813091 0.2352155301 -0.1778222228
0.3291134537 0.1807640455 -0.2708359897
0.4267235611 0.1752764334 -0.3340033909
0.6682611691 0.1838022256 -0.1076115594
0.5219715996 0.1695745890 -0.0434956244
0.6065169692 0.2273591549 -0.0299141053
0.6023978655 0.2681451424 -0.2057989978
0.4942139411 0.2271865598 -0.1556328116
0.5734727591 0.2894713325 -0.0780988340
0.5737761592 0.2051575913 -0.1633043350
0.4368703397 0.2577547843 -0.0335056676
0.4611160796 0.2077302926 -0.0841275346
0.4097311686 0.3638603707 -0.0299701632
0.5949048097 0.1563930576 -0.2081709900
0.4115918257 0.2778632757 -0.1567938043
0.4958017280 0.1717828641 -0.3600000143
0.4308559423 0.2102011607 -0.1638535093
0.4875354903 0.2831779948 -0.0776879000
0.4335967817 0.2623980610 -0.2615283331
0.5361857097 0.1574138167 -0.0533305451
0.3305314382 0.2949065738 -0.0476653699
0.6599256910 0.2087775280 -0.1788947757
0.5897971669 0.3099409860 -0.0883664805
0.5747809860 0.2393064845 -0.2951382947
0.4771459226 0.1876820649 -0.0613277566
0.5450688762 0.2847535842 -0.0169027033
0.5410669009 0.2355380800 -0.3352049489
0.4332036479 0.3610518128 -0.0192019163
0.4487040726 0.1714205033 -0.2089523438
0.3623697821 0.2209525900 -0.3502536301
0.4480586646 0.2375652628 -0.0117574720
0.5500011590 0.1827923621 -0.1430774020
0.5052222434 0.1479914485 -0.2580593557
0.5817227805 0.1453437491 -0.2128295319
0.3161325888 0.1967177326 -0.2892761958
0.5707997275 0.1616996208 -0.2987318911
0.6053243616 0.1411319529 -0.0242415217
0.5051637024 0.3029156803 -0.2036612802
0.3743081287 0.2708315062 -0.0741179233
0.4685941360 0.3269496079 -0.0905011744
0.5007795197 0.1730960497 -0.0659809591
0.4125248134 0.2420544650 -0.1654385984
0.3292378770 0.2172922379 -0.2505760027
0.3381856236 0.1707498662 -0.2757615797
0.4097528685 0.2368746306 -0.1887260462
0.3887995277 0.2268532816 -0.2300000042
0.4211954801 0.2141954868 -0.2435270964
0.3872220177 0.2525361827 -0.0024210198
0.5535347812 0.1344215412 -0.2085087563
0.6318573440 0.1946521307 -0.0074320124
0.4309716966 0.2067755304 -0.1734787201
0.4674312572 0.2016528342 -0.3600000143
0.6229931394 0.1787817989 -0.0088193906
0.5804799208 0.1762198573 -0.2792079036
0.5935260371 0.1950913028 -0.1298650273
0.5287852956 0.3046043633 -0.1732703943
0.5462096438 0.2872291066 -0.0059473623
0.5981834340 0.2035550998 -0.0094448132
0.6189943152 0.2890394144 -0.1341409868
0.4054528092 0.1719232533 -0.3371450527
0.3820185748 0.3593761360 -0.0073788329
0.6162082149 0.1416488251 -0.0198553292
0.3431613073 0.2009729762 -0.3318854791
0.5434326442 0.1679396389 -0.0791728371
0.6691175420 0.2285557676 -0.1440639534
0.3841172997 0.2655880385 -0.0777181700
0.6105186680 0.2600448682 -0.1779177544
0.4126738115 0.2554419536 -0.2108280106
0.5025672619 0.2304985348 0.0000000000
0.6695754805 0.2150937685 -0.1529670519
0.4697732495 0.1923695672 -0.0363842450
0.4684636148 0.3163951823 -0.1280448733
0.4716403030 0.2675028451 -0.3328745919
0.5610837957 0.2730000019 -0.2501640784
0.5860332016 0.1846188511 -0.3148911138
0.6061439972 0.2552684849 -0.2355902879
0.4687179037 0.1619176847 -0.2202488308
0.6429221831 0.2070448018 -0.1916795377
0.6296796951 0.1894897478 -0.1966595759
0.5461358297 0.2725011748 -0.2014402864
0.4039515407 0.3554331751 -0.0199999996
0.4259750569 0.1876167553 -0.0536641458
0.5967996112 0.2717604289 -0.0696979490
0.5942689458 0.1670447407 -0.0032136133
0.3937634263 0.2896605612 -0.1180888861
0.5758416314 0.1363724033 -0.2096484749
0.4066380612 0.2988101591 -0.1343566145
0.4535052268 0.2646693880 -0.1870557303
0.6175391704 0.2545021498 -0.2173967273
0.4655188473 0.2585542834 -0.0647158078
0.4181623167 0.2274726600 -0.1909761529
0.5517153298 0.1557040204 -0.0653798298
0.5862843294 0.2050234397 -0.1849844234
0.5975179482 0.2538898511 -0.1971178409
0.4704953519 0.1758513927 -0.3462235609
0.4316899576 0.2056826429 -0.0266930408
0.6637384292 0.2519269486 -0.1252594722
0.5043719377 0.1524312627 -0.2758894099
0.4511453661 0.2356896260 -0.3512257173
0.5852816092 0.2961974996 -0.1183318506
0.5265142191 0.1689116768 -0.0971978984
0.5729024963 0.2495435500 -0.2894179074
0.6645598111 0.1905667515 -0.1584742021
0.5354459313 0.2896254732 -0.0048444762
0.6713515117 0.2340153367 -0.1077496152
0.6369419622 0.1605240310 -0.0351280976
0.3494901744 0.3346056187 -0.0636259779
0.5001339506 0.2154908914 -0.0084647844
0.4540407731 0.2650031435 -0.3067321785
0.3335669889 0.2237292651 -0.2622970934
0.6058803845 0.1487390236 -0.1698940873
0.3749028379 0.2304256636 -0.2300000042
0.5017467840 0.1579251227 -0.3235120738
0.5335432386 0.2391603953 -0.3401441025
0.4083048392 0.2089383897 -0.3600000143
0.4580266576 0.1733746471 -0.0082507731
0.5988651035 0.2430168275 -0.1991335557
0.4117981903 0.1708598030 -0.2854474315
0.4414750262 0.2311087162 -0.0074331769
0.5195335436 0.1585069216 -0.1857416453
0.5372338449 0.2854045304 -0.0239057033
0.5410450998 0.2562821541 -0.2099248413
0.3703076922 0.2815982853 -0.0040742436
0.4352556806 0.1817569446 -0.0561712052
0.6616447633 0.2393455068 -0.1658908642
0.4695735664 0.1946956514 -0.0901333560
0.4209568987 0.2280922548 -0.1060992111
0.4906414781 0.2876174094 -0.2363284496
0.3595094648 0.2433708165 -0.3007830311
0.3795729292 0.2868403401 -0.0027728321
0.3824890813 0.2434394006 -0.0673719945
0.4014176606 0.2488121892 -0.2355223836
0.4517260371 0.3608577885 -0.0240269213
0.5332960865 0.3100267985 -0.0975670015
0.4208712722 0.2247612341 -0.3600000143
0.4642312143 0.3419193043 -0.0099853475
0.5912783837 0.1925201822 -0.0062348424
0.4587869421 0.3503929683 -0.0297001364
0.6436931474 0.1703709637 -0.1847010720
0.4492134203 0.1952790761 -0.0475483338
0.4040745108 0.2585792110 -0.2013473580
0.6055001558 0.1913993831 -0.0442391644
0.3924047439 0.2478412436 -0.3600000143
0.5957715898 0.2026192874 -0.2554316131
0.5001762708 0.1552503670 -0.3127498378
0.4118335238 0.1995889100 -0.2046386535
0.5764350565 0.3166086118 -0.1395881234
0.3729523865 0.1712885422 -0.3477937871
0.5347879980 0.1370706679 -0.2079256589
0.4352382201 0.2203748101 -0.3600000143
0.5206770101 0.3091455984 -0.1900902800
0.3944380071 0.3661329319 -0.0472257494
0.4936235487 0.1895886912 -0.0129416752
0.5307802682 0.2738446371 -0.1939371274
0.3670150107 0.2915402141 -0.0698873015
0.6268518457 0.1444129714 -0.0451440356
0.5979169063 0.3045256402 -0.1451084098
0.6624793652 0.2399205594 -0.1529340445
0.5336926705 0.2666319523 -0.2951446448
0.5647083774 0.3079999983 -0.1434321450
0.6053945900 0.2028296495 -0.0465311501
0.5914449418 0.1488367250 -0.2021221421
0.4515406697 0.3027221638 -0.1608070198
0.4885640506 0.1733096180 -0.1070607038
0.3913065507 0.2159969141 -0.0669847950
0.5655241157 0.1444384444 -0.0086374358
0.5110459645 0.2213601159 -0.0126290599
0.4229743184 0.3155300436 0.0000000000
0.5822607047 0.1520864259 -0.0718136685
0.5925452045 0.2924359808 -0.0718324225
0.5242362818 0.1781934726 -0.0255540857
0.6640366886 0.2003776886 -0.1675950208
0.5809517016 0.2543110545 -0.2678393897
0.5260531204 0.2855671187 -0.1862852582
0.3913707853 0.2039381503 -0.0466211299
0.4064144499 0.2417490404 -0.1812440316
0.4398176786 0.1743467156 -0.2184324998
0.5735517294 0.2834252774 -0.2087211493
0.4286173315 0.2429531375 -0.0593681022
0.6141823715 0.2640468253 -0.0295239268
0.4935852356 0.2852814757 -0.2478889453
0.5601457015 0.1460652647 -0.2795156020
0.4983746485 0.1618742740 -0.3391668317
0.5866171726 0.1602011111 -0.1629358170
0.5427118883 0.1629011501 -0.3434816245
0.5105079658 0.3013752193 -0.0873692817
0.6182746076 0.2965508666 -0.1153033998
0.4378137716 0.3109969505 -0.1227391853
0.3914216869 0.2157103878 -0.3600000143
0.4931600668 0.2982311711 -0.0750694519
0.4527123621 0.2670986149 -0.3194031597
0.6100991473 0.1812612293 -0.0039887862
0.4465079739 0.1684554261 -0.2334642761
0.6710946797 0.2192694961 -0.1408775322
0.4781403238 0.2576486061 -0.0614466942
0.4417345902 0.2139934078 0.0000000000
0.5565902347 0.1626237316 -0.1716688889
0.5552380760 0.2180188385 -0.1954490881
0.5515902767 0.1376493096 -0.3183589147
0.4094211898 0.2563881455 -0.1507156876
0.5166481748 0.1550717987 -0.3328786372
0.5239551142 0.1500000060 -0.3106355050
0.4977452531 0.2858006698 -0.1746745997
0.5648745225 0.2864595894 -0.0636342550
0.5140391392 0.3091944315 -0.0608520661
0.3779132556 0.2569538332 -0.2619593605
0.6071690531 0.1449999958 -0.1814400171
0.5000253477 0.2257082125 -0.0130042143
0.4231691606 0.2168502046 -0.0964798951
0.3871265211 0.3368991029 -0.0005713868
0.4983884064 0.3028217623 -0.1055633967
0.4153944746 0.2600089051 0.0000000000
0.4655781013 0.1760247193 -0.1754212070
0.6096821976 0.2418006149 -0.0641133350
0.4142110438 0.2171867916 -0.0819579301
0.3944560518 0.2832448071 -0.1427197912
0.6052212574 0.2429896231 -0.2647123817
0.5815464679 0.1519674577 -0.2197097388
0.4705801654 0.1799501738 -0.1022763542
0.5824728435 0.1370455012 -0.2019664012
0.5990497762 0.1430241382 -0.0369994897
0.4915801431 0.3269025018 -0.0452808107
0.5044372156 0.2602548534 -0.3465629110
0.4859144454 0.1913015483 -0.1048201935
0.3629464795 0.3373278339 -0.0041068655
0.4290880228 0.2737728145 -0.3376559064
0.6083072244 0.2806871072 -0.1079199883
0.6285068744 0.2398461290 -0.2075927467
0.5687917654 0.2700076925 -0.0329062326
0.5911779999 0.2585981193 -0.2580367480
0.4995739191 0.3033047844 -0.0282599251
0.5309954129 0.2985057404 -0.0644146309
0.5663396566 0.1522240529 -0.0386673211
0.4657866287 0.2810956229 -0.0379394582
0.3618239154 0.3539620253 -0.0572228901
0.4909174290 0.2805320414 -0.2603001266
0.4835504812 0.3172308717 -0.0213776789
0.5787437612 0.2314491140 -0.3035306157
0.6445785999 0.2554710106 -0.1822833702
0.4879310518 0.1871925952 -0.0231112151
0.4951144357 0.2652983093 -0.1704760758
0.5127681253 0.1635171041 -0.0441064080
0.5594773853 0.1479698368 -0.2429622885
0.4382568493 0.2322847289 -0.0809510115
0.6250188548 0.1446174619 -0.0171774081
0.5527456856 0.1675733592 -0.3416434121
0.4465480906 0.2643599538 -0.2642681045
0.6048667152 0.2066196683 -0.1227791336
0.5875894834 0.2840561421 -0.1786088215
0.4611698829 0.1874033329 -0.1604126076
0.4537318040 0.3505471978 -0.0083143860
0.3658105381 0.3588495119 -0.0480341251
0.4928812622 0.1693516703 -0.1343260985
0.3466983037 0.2309382424 -0.3121515664
0.5653755573 0.1535633385 -0.2525836021
0.4651250686 0.2740044058 -0.2360296823
0.4167347453 0.2095374113 -0.1939576208
0.4768346019 0.2160000056 -0.1536432305
0.4249926191 0.2580384684 -0.2579826465
0.5436715585 0.1372481685 -0.2819686995
0.3751800194 0.3292834169 -0.0784833448
0.3837933376 0.1709348524 -0.2886679933
0.6322606328 0.2378953454 -0.1205723143
0.5829099068 0.1736283772 -0.0946527773
0.5031677834 0.2885147717 -0.2492450164
0.4015961960 0.2016181017 -0.0506089383
0.6088358329 0.2485760790 -0.1772708009
0.3925032279 0.2832688796 -0.0008982729
0.5032336620 0.2725713117 -0.3072452817
0.5141017956 0.1851688332 -0.0012065241
0.5196480547 0.2864481102 -0.1768774840
0.6704117776 0.2223344621 -0.0697058919
0.4518007564 0.1771143995 -0.0400939060
0.5131585677 0.2957953744 -0.2291729283
0.4369322088 0.3154973129 -0.1028248928
0.5555377054 0.2060206069 -0.1811508214
0.3983161309 0.3012755596 -0.1140720481
0.6234480304 0.1691707593 -0.1957173863
0.5846103592 0.2799901905 -0.0722240345
0.6147339830 0.2704026296 -0.1067615599
0.4277875234 0.2372105984 -0.0749906409
0.6189792505 0.2169582241 -0.0995011305
0.3425630739 0.2184608919 -0.2300000042
0.5518152947 0.3178513693 -0.0902363623
0.3549945324 0.3529601840 -0.0088693273
0.4784576347 0.3262994579 -0.0810620868
0.5761673245 0.2656960832 -0.2629103467
0.6135267984 0.2887752098 -0.1454101418
0.4904950114 0.3011766281 -0.0875436096
0.4782934209 0.1976648606 -0.0217828259
0.5200294649 0.2399214101 -0.1804120442
0.5447703556 0.1552839511 -0.0593227793
0.5195729149 0.1473633685 -0.3008080013
0.5606997895 0.1819323868 -0.1533352295
0.6088167635 0.2707517086 -0.0966625963
0.6683882137 0.2112310149 -0.0631359384
0.4401380843 0.2609904801 -0.0254053939
0.5697469054 0.1656374702 -0.1147525341
0.4759447379 0.2265206264 -0.1342232791
0.4369075656 0.1741822478 -0.2289681023
0.5071389014 0.2102222545 -0.1549905599
0.4534312529 0.1981192183 -0.0773040199
0.4827532386 0.1557537654 -0.2597389995
0.4763328128 0.2497549443 0.0000000000
0.3270691397 0.2131860523 -0.2400703029
0.5854966393 0.3076286974 -0.1681921108
0.4318670992 0.1995665712 -0.0848533263
0.3836532063 0.2594941316 -0.3279338106
0.4451849377 0.1921188407 -0.0825843334
0.6165777867 0.1468293698 -0.1867268477
0.5908463834 0.2128894811 -0.2056674185
0.4411906159 0.2009876926 -0.0235904517
0.5850734739 0.2982986797 -0.1570803852
0.6709971944 0.2322455623 -0.1175991526
0.5988079440 0.1506174805 -0.0068260510
0.5984222060 0.3061398871 -0.1142013230
0.3509291098 0.2375428502 -0.2742994064
0.6363463735 0.2376223605 -0.0055127517
0.6146988168 0.2134196920 -0.2291998937
0.5240675431 0.2603452517 0.0000000000
0.6708874922 0.1938498427 -0.1072502625
0.4893185242 0.2586978561 -0.1499570443
0.5178124372 0.1507422266 -0.2905453098
0.6373263035 0.2722982248 -0.1650210584
0.5509033333 0.2860633526 -0.0444725364
0.4298563903 0.2249734345 -0.1318927789
0.4563505159 0.1736285563 -0.0502084533
0.6142295681 0.2263869193 -0.2470706933
0.5683470726 0.2131700699 -0.3240175972
0.4319685750 0.2026497822 -0.3600000143
0.5053398483 0.2000595890 -0.3600000143
0.6158985613 0.2496631295 -0.2307305018
0.6217812253 0.2413020494 -0.2343576078
0.5294584860 0.2888662229 -0.0145959792
0.3972143856 0.3497898243 -0.0034575425
0.4321201454 0.2868627595 -0.1577580047
0.4869907530 0.3154104956 -0.1223612496
0.5347666510 0.1381602156 -0.2415034643
0.4515982787 0.2985373398 0.0000000000
0.5947652976 0.2872094857 -0.0623423741
0.4748165855 0.2751636566 -0.0931022235
0.4281442516 0.2121393859 -0.3600000143
0.5331480738 0.1671555751 -0.1094910966
0.3578509608 0.1680910063 -0.3413281583
0.5688350535 0.1588025949 -0.3151082246
0.3993942271 0.2589772307 -0.1688646601
0.3677582636 0.1945533621 -0.2300000042
0.3427015004 0.2321522550 -0.2595841683
0.4605790097 0.2070195201 -0.0963654445
0.5340481614 0.2451084529 -0.3318675053
0.5878529822 0.1729011224 -0.0848598226
0.6096656368 0.2570433408 -0.0043781851
0.4647571577 0.2889367488 -0.1841588187
0.5950020057 0.1923686120 -0.0204064979
0.4655808055 0.1662205594 -0.3366285971
0.3798229150 0.2577859904 -0.3400028545
0.3440724827 0.2194766297 -0.3350000083
0.4035701451 0.2650914248 0.0000000000
0.6227833928 0.2840630947 -0.1703352935
0.3966891107 0.2358461460 -0.3600000143
0.5173717334 0.2525026935 -0.3430612341
0.4780761498 0.2734873971 0.0000000000
0.4776125647 0.1744070147 -0.0790558297
0.5598161588 0.1870821725 -0.3459865397
0.5305629492 0.1386158764 -0.2167702229
0.5788038807 0.1881488693 -0.1524683133
0.4146749168 0.1703948683 -0.2667401781
0.3609886307 0.2483431109 -0.2735860799
0.5295633029 0.1446999471 -0.3168931515
0.4880725324 0.2830406449 -0.0515010804
0.6450325834 0.2393306935 -0.0425475051
0.5529972297 0.1370288680 -0.2741955291
0.4150525491 0.2333674725 -0.3600000143
0.5044364973 0.2886260914 -0.0033604786
0.3425833753 0.1676559790 -0.2993720428
0.3825554354 0.2570268592 -0.3547994904
0.3990571650 0.3371330243 -0.0004641632
0.5470019713 0.2113928220 -0.1818427703
0.6402091408 0.2584298949 -0.0696289692
0.4589070407 0.1849192018 -0.0514324457
0.3731974500 0.2483172959 -0.3503083852
0.6179999709 0.2301095139 -0.2358805497
0.4996172430 0.1552424922 -0.3023615074
0.5406124368 0.1552450369 -0.0312420885
0.5759046004 0.2870489955 -0.1837238529
0.6109271378 0.2434647723 -0.2550207834
0.4940136702 0.2787607653 -0.2714202063
0.5385639017 0.2892722094 -0.0450877388
0.5878473247 0.2922362207 -0.1695899172
0.5334855426 0.3015250206 -0.0778709570
0.3955793502 0.1765298278 -0.2407701049
0.4279599094 0.2576150402 -0.2447363379
0.5313687718 0.1972101103 -0.3583197144
0.4867794662 0.2596699631 -0.0297247136
0.4690949954 0.1926389147 -0.0563338709
0.5242155728 0.2450128304 -0.3476475765
0.4564404346 0.1645866466 -0.2569257573
0.5433614281 0.3198897746 -0.0961021794
0.4087509163 0.1997220085 -0.0421375306
0.5460697621 0.1702793422 -0.0904249010
0.3818325594 0.1869010836 -0.3573825797
0.3388274883 0.3237268199 -0.0250576806
0.5516138357 0.3125318193 -0.1695812174
0.4395561029 0.2064945789 -0.1058523208
0.6330570567 0.1503046657 -0.1246447885
0.5255363439 0.2630857074 -0.3158076558
0.6332772553 0.1499706371 -0.1067762053
0.5979820741 0.2322239839 -0.1858454503
0.4241896632 0.2440886326 -0.3600000143
0.6013727641 0.1656325842 -0.2183166125
0.4255736997 0.2940878025 0.0000000000
0.4770051094 0.3101216372 -0.0037175655
0.4242479269 0.2829999924 -0.3533093865
0.4674533287 0.2700157170 -0.2676478344
0.5840296786 0.2073836262 -0.1593167180
0.6282509319 0.2857870757 -0.1277984407
0.4986303424 0.1663438327 -0.1565650395
0.6441760182 0.1729234626 -0.0526119779
0.4035263365 0.2351956826 -0.2092910296
0.3672190655 0.2038737271 -0.3537208695
0.6043039956 0.2016410367 -0.1011398479
0.3590928958 0.2014244287 -0.2300000042
0.3816951833 0.2568781437 -0.2521953586
0.5505233170 0.1754315625 -0.0195658279
0.6697133618 0.2409026412 -0.1000107464
0.4703776117 0.1815593407 -0.1119336973
0.4763474204 0.1636385797 -0.3359466703
0.6388412189 0.2410593465 -0.0159002444
0.4175001952 0.3123918983 -0.0998062441
0.5722938634 0.1654921726 -0.3214528750
0.4136266519 0.2582733119 -0.2587888505
0.6138468986 0.1891298947 -0.0649753352
0.5799999833 0.1789311091 -0.2445089732
0.5819573519 0.2362314133 -0.2033075237
0.3879080595 0.2286143417 -0.0037245064
0.3889128680 0.1783355638 -0.3563800635
0.6172860896 0.2748313428 -0.1340701863
0.5169887993 0.2787319946 -0.2781700131
0.6312515473 0.2258613684 -0.1504396556
0.4628194017 0.2404283449 -0.3440917723
0.6095970334 0.2580847737 -0.2244738254
0.4673197430 0.1672882280 -0.3507956617
0.4027891909 0.2651864548 -0.3069994300
0.4656058061 0.2807861415 -0.0496046332
0.5387997210 0.1546913103 -0.0098224181
0.4447111294 0.1702545756 -0.3147294239
0.4713782910 0.3305205987 -0.0753584764
0.4979057433 0.3180837208 -0.1566199113
0.6254230865 0.2619394448 -0.0451013715
0.3479364356 0.2600115472 -0.0481021039
0.6171000387 0.1975485765 -0.0724580299
0.6666240005 0.2301551536 -0.0578148463
0.6219249046 0.2536273183 -0.0960335551
0.6551774398 0.1632067648 -0.1606934796
0.4513289846 0.2781189808 -0.1708680727
0.5556112635 0.2179765612 -0.3313134936
0.3839333963 0.1690429530 -0.2659435765
0.6018384228 0.2612613814 -0.0684177789
0.5260885338 0.1604274976 -0.0414198888
0.3574439270 0.2459098420 -0.0455599549
0.5149070048 0.3121023945 -0.1132697149
0.6335875770 0.2097753010 -0.1339177553
0.4550544173 0.3106984745 -0.1411233002
0.5462305120 0.1358361746 -0.2222157235
0.5063188141 0.2898756103 -0.0585347960
0.5408684681 0.2500099703 -0.3188542541
0.5906850015 0.1938917250 -0.2952167889
0.5069894296 0.2238817957 -0.3600000143
0.4610430838 0.2154031008 -0.1072122434
0.4465108858 0.1691935129 -0.2934548225
0.5434468183 0.2644961689 -0.0188764484
0.6218644780 0.2440973471 -0.0883257113
0.4362340594 0.2429010340 -0.3600000143
0.3440142973 0.1659241765 -0.2818768424
0.5388338132 0.1816766628 -0.0132193809
0.4267262544 0.2082482722 -0.0452947614
0.4285638100 0.2190990128 -0.1693768873
0.6123491197 0.2288561159 -0.0667829568
0.6055520229 0.2679545257 -0.0253329184
0.5856602306 0.1602459379 -0.0035730486
0.4730947140 0.3085365727 -0.1682802488
0.4256488122 0.1916194959 -0.0303617242
0.4703610834 0.2616715241 -0.0869787136
0.5339057092 0.2936088046 -0.0548158826
0.3458339204 0.3042645900 -0.0160867405
0.4231829437 0.1724856169 -0.3031258955
0.4706140930 0.3355690277 -0.0454342795
0.4990050481 0.2849999964 -0.0493275799
0.5594447032 0.3092811155 -0.1137394371
0.3267582910 0.2027542517 -0.3127582925
0.4656746920 0.2478502664 -0.1103657418
0.5865289987 0.1542347349 -0.0838167656
0.6586763576 0.2608017381 -0.1275219213
0.5690274080 0.3041424619 -0.1615287217
0.5968246229 0.1895396841 -0.1063263688
0.5532431904 0.1628862493 -0.0443447868
0.5172698127 0.1611102403 -0.1752453478
0.4047189475 0.2280167310 -0.0016740203
0.5366166485 0.2969403972 -0.2109892733
0.4510002048 0.1859779014 -0.1850986237
0.4248724728 0.3508754691 -0.0748721631
0.3699475910 0.2505653446 -0.2234829509
0.4634713726 0.1808982244 -0.3599932556
0.4847531228 0.2941745674 -0.1282253810
0.5992827774 0.2189099043 -0.0314755480
0.5254812601 0.1916709276 -0.1439879490
0.3873048133 0.2089854487 -0.0355269362
0.4800114263 0.1756148973 -0.0954867301
0.5290548157 0.2070755755 -0.3587418380
0.5903600677 0.1605832641 -0.1135222789
0.5335506452 0.1513384276 -0.3432426062
0.5551691787 0.2766239609 -0.1958975868
0.5431262398 0.2868992692 -0.0617805671
0.4845650108 0.2698057223 -0.3016001981
0.5619985727 0.1595305221 -0.0895752533
0.3337290554 0.2232415022 -0.2424582741
0.6304986286 0.2203478437 -0.2062534595
0.4209829149 0.2298643781 -0.0696199087
0.5237259848 0.2931544838 -0.2348166931
0.4564693540 0.2903654537 0.0000000000
0.5946222366 0.1742052044 -0.0515559572
0.5282536132 0.2324342141 -0.0071157809
0.4487269369 0.1683723702 -0.3050584150
0.4930703651 0.2920096985 -0.0580395569
0.6372547521 0.2668647646 -0.0762819288
0.5716573749 0.1654382644 -0.2115558921
0.4987258827 0.2510604607 -0.1679462949
0.5231446774 0.1757519981 -0.1069731440
0.6190917869 0.2789981762 -0.0737693235
0.5627385828 0.1527868825 -0.3224949576
0.6369354046 0.2513659186 -0.1957437548
0.5959158346 0.2785183972 -0.0781307962
0.6013912341 0.2060273331 -0.2422023593
0.5954212708 0.2156354146 -0.2948139553
0.4073034363 0.2619999945 -0.2682678205
0.5050760015 0.3183805510 -0.0564048615
0.4991015912 0.2675167581 0.0000000000
0.4371224440 0.1903301766 -0.3600000143
0.5078721489 0.2018531094 -0.1445009763
0.3705800461 0.2504641084 -0.2361602705
0.5817715517 0.2900691011 -0.0646183355
0.5870849295 0.1463336689 -0.1862878346
0.5048838560 0.3168746777 -0.1175359961
0.5326436887 0.1886125134 -0.0018027037
0.6497293586 0.2535390665 -0.0726752232
0.4646581816 0.1646794339 -0.3205257385
0.3920938151 0.2539852002 -0.2178431033
0.4600467497 0.2642177906 -0.2854937274
0.3680782697 0.2382413414 -0.3505319982
0.4163425846 0.1724254805 -0.2522560471
0.4203993469 0.2697732514 -0.1663804835
0.4114461415 0.2327684159 -0.1976815449
0.6079477745 0.2729848881 -0.0477715158
0.3808258264 0.3597716408 -0.0625768779
0.4024675153 0.2396622006 -0.0857064835
0.4104560409 0.1859147694 -0.3600000143
0.5116693803 0.3185354629 -0.1324451962
0.4502201219 0.2765405590 -0.0582042158
0.4921378046 0.2927981284 -0.1559339095
0.5122899209 0.3185505147 -0.1040064940
0.4285316069 0.1850606782 -0.0054700393
0.5691915313 0.2643353213 -0.2711077998
0.5391676972 0.1887986243 -0.1629074434
0.3998937640 0.2938600407 0.0000000000
0.4538459530 0.2255411352 -0.3479430353
0.4907834358 0.1965438202 -0.1247894144
0.5603889742 0.2780693259 -0.0340022887
0.6261860462 0.1508574253 -0.1161021042
0.5753668735 0.1686317260 -0.2908142879
0.5651530183 0.2894884926 -0.2015542042
0.6003677776 0.2092796517 -0.2314194397
0.4755405852 0.2823268099 -0.0678157056
0.5685809300 0.2064476016 -0.1905317105
0.4345200106 0.3309342820 -0.0009630942
0.4611587139 0.2270835372 -0.0956005266
0.5027098598 0.2745319437 -0.1717309423
0.5048003023 0.2587922223 -0.1684031374
0.5465582505 0.3113154264 -0.1173143577
0.6659904062 0.2067462066 -0.1586903024
0.6089738741 0.1704346068 -0.2114115122
0.5185533620 0.1648916249 -0.0760388742
0.4962871546 0.3073355311 -0.0179869400
0.5498495811 0.3016127724 -0.1786734541
0.3948810522 0.2774218970 -0.1326920604
0.5355417159 0.2381982785 -0.2064585510
0.5511129758 0.3186286554 -0.1087133479
0.4435241521 0.2688266540 -0.3389538572
0.5051685143 0.3100735475 -0.0476120505
0.4823863854 0.2859431438 0.0000000000
0.4650388954 0.2312002184 -0.3515724449
0.4539076717 0.2413913096 -0.1250000000
0.3526785338 0.3312777459 -0.0054189311
0.6075431587 0.2537069232 -0.1876523931
0.6001354700 0.2133061072 -0.0208470148
0.4014187836 0.2618233285 -0.1046875703
0.5294956254 0.1665080297 -0.1552557516
0.4115473773 0.2497211489 -0.2389893701
0.6553221600 0.2605657343 -0.0964222879
0.4743070564 0.1624799582 -0.1979413699
0.4864279967 0.1584747969 -0.2879984894
0.4530942275 0.3209288801 -0.0013542831
0.6733512567 0.2325253671 -0.0819043721
0.4997865574 0.2074601734 -0.1444265315
0.5749151613 0.3154653389 -0.1237072601
0.5821166951 0.2881073777 -0.0888699586
0.5779344112 0.2766658890 -0.0203545555
0.3753370401 0.1831455858 -0.2300000042
0.5967459646 0.1593491584 -0.1453551884
0.3897967649 0.2582593936 -0.3051826194
0.5551162338 0.2595807641 -0.2833306155
0.3677494398 0.1702812698 -0.3010535694
0.5798760376 0.2043151431 -0.1956309608
0.4659533223 0.1606284276 -0.2478157036
0.6090425236 0.2631708286 -0.2107499476
0.4937288628 0.2717450326 -0.3055767539
0.5389954808 0.1379829183 -0.3057463969
0.3771016536 0.2533091962 -0.3123461866
0.3508180893 0.2732977745 -0.0625358413
0.4234116434 0.2155894517 -0.0257859770
0.5656463377 0.2572650961 -0.2804198506
0.5155330098 0.2443411687 -0.3590359071
0.5660543728 0.1554182205 -0.0689196137
0.4814164559 0.3043561913 -0.1810907891
0.5617233739 0.2486389176 -0.2941141426
0.6079145759 0.2269858470 -0.1611407870
0.5594880277 0.3073894709 -0.1815564201
0.5879716858 0.2210674501 -0.3006803393
0.5064335139 0.1586914769 -0.3441348409
0.6066751307 0.1827330489 -0.0674765434
0.4473406740 0.3300642368 -0.0888621046
0.5017199458 0.1519942629 -0.1996850101
0.6582926920 0.1955145354 -0.1773244880
0.5802909117 0.1760721618 -0.3063580574
0.5709999800 0.1637178358 -0.2519282897
0.3917104777 0.2417660844 -0.2156911614
0.5158842555 0.2393526622 -0.0213363360
0.5260292858 0.1410000026 -0.2263616855
0.4262820329 0.2657396114 0.0000000000
0.4553748051 0.1958947864 -0.1587045257
0.6221232057 0.2186978569 -0.1176505519
0.5630648374 0.1523273372 -0.0566297806
0.6592425941 0.1836674779 -0.1710193499
0.4464522181 0.2514450312 -0.3600000143
0.3924476466 0.3064535605 -0.0930343772
0.5907710582 0.2838880663 -0.1947050434
0.5279691120 0.1432389306 -0.2534415985
0.5185720144 0.2425492985 0.0000000000
0.4344678760 0.2114577364 -0.1335769235
0.4213577965 0.3600000143 -0.0157862940
0.6609588355 0.2473563806 -0.0806328093
0.6056430595 0.2415617195 -0.0556862198
0.5499971306 0.1503703652 -0.0065062890
0.5824257759 0.2717543298 -0.2271853872
0.3989346332 0.2444072262 -0.1897233829
0.4214575038 0.3582378386 -0.0049999999
0.4687944043 0.2719543193 -0.1250000000
0.4652757573 0.2609138902 -0.3464295922
0.3539567325 0.3120399262 -0.0350000001
0.4761662453 0.2949249821 0.0000000000
0.6158346834 0.1527977217 -0.1071878523
0.4294577280 0.1756473527 -0.2355680690
0.3834612572 0.1705821879 -0.3182966260
0.4885868524 0.1701377159 -0.3466192318
0.5182124461 0.2044913126 -0.2113125664
0.3461273985 0.3518187023 -0.0500896600
0.5621999179 0.2975603151 -0.0714695820
0.4415158849 0.1910134876 -0.1836963814
0.6453149616 0.1987809591 -0.0784932048
0.3659173970 0.1774069984 -0.2374798145
0.4879962868 0.2054012045 -0.1324339773
0.5657359110 0.1571038769 -0.2159619519
0.4983072680 0.1706943606 -0.1166318744
0.6050265493 0.2974480904 -0.1487276809
0.4795780750 0.3258295397 -0.0261222917
0.5347817775 0.2801678827 -0.0530969798
0.5327384906 0.2166834162 -0.3566390383
0.4254523999 0.2108516759 -0.0346865580
0.4037732402 0.2765624410 -0.3441804149
0.3787828548 0.2242963509 -0.0058782018
0.6387460817 0.1557911602 -0.0866936511
0.3959998667 0.2571657506 -0.3600000143
0.4338749407 0.3117231341 -0.1123485408
0.3254681816 0.3206645130 -0.0503545492
0.5699005179 0.1760782938 -0.0098042801
0.3642636721 0.1831759376 -0.2300000042
0.5797396156 0.1454945706 -0.0061312663
0.6578262200 0.1616048840 -0.1503408182
0.5217889454 0.1834539443 -0.1213631620
0.6614676387 0.2434366229 -0.1386645393
0.5918099380 0.1910165856 -0.2313872184
0.5994514541 0.2443094430 -0.0380911139
0.4737746431 0.1718169179 -0.3591549564
0.3583593254 0.3604806524 -0.0378992728
0.3663444652 0.3043440610 -0.0034803746
0.5468134338 0.1449424041 -0.1948394490
0.4389306973 0.2551510594 -0.0687425586
0.3421276504 0.1836752886 -0.2456529463
0.5324825382 0.1930520938 -0.1564081224
0.3986884384 0.2285597289 -0.0821866738
0.5522214466 0.1816054916 -0.3498142552
0.5546295327 0.1975092300 -0.3472422126
0.4342373484 0.2457774626 -0.0737539960
0.6126564521 0.2653378805 -0.1676045845
0.4300949542 0.1729999930 -0.3126907313
0.5428086906 0.1743930984 -0.0259144489
0.6139404698 0.1501065984 -0.0097022509
0.4608718377 0.2635422563 -0.3259413565
0.5864398746 0.2654848857 -0.2428859213
0.3925626196 0.2631923713 -0.1943470037
0.5898831523 0.2620079262 -0.1947403864
0.3869579164 0.2287940975 -0.3598561861
0.3898728974 0.3627269768 -0.0144441517
0.5383349183 0.1417249784 -0.2557106412
0.3991674164 0.2683739294 -0.1269192871
0.5112130404 0.1706651685 -0.1021890408
0.5250695950 0.1708890918 -0.0608011281
0.5138227903 0.1660561069 -0.3599038503
0.5737135014 0.1695225063 -0.2433903605
0.4430244574 0.2601952296 -0.2139979231
0.5699523267 0.3006464218 -0.1004271714
0.5393904930 0.1679340468 -0.0580607338
0.3773207270 0.2531102474 -0.2975081470
0.4446903959 0.1726823036 -0.3423826847
0.3803374814 0.2414481023 -0.0042931676
0.3717580076 0.2079370146 -0.2300000042
0.4295229570 0.2209645435 -0.0731460834
0.5038839658 0.1810155257 -0.0025341418
0.5755532245 0.1499357713 -0.1840327853
0.4740707882 0.2699472458 -0.3600000143
0.5285954835 0.2832071776 -0.2531573325
0.4618272535 0.2679429266 -0.2589518356
0.3990867011 0.2683950896 -0.1567888297
0.5181145582 0.2510147457 -0.1769063102
0.3437276597 0.3152074221 -0.0178061254
0.4146457230 0.2457647889 -0.1468097469
0.5053680933 0.3196991919 -0.0678240812
0.5153109704 0.3154786137 -0.0739850590
0.4035261643 0.1717378623 -0.2942232801
0.5071981668 0.1950052218 -0.1370545340
0.4362083194 0.2777750548 -0.3570393328
0.5551086883 0.1675129380 -0.0932246943
0.4592507128 0.3187977997 -0.1040164292
0.5263607046 0.3068588470 -0.1981952155
0.4314258726 0.2674981468 -0.3294873842
0.4831280375 0.2951706559 -0.0994112463
0.4504665301 0.1840738536 -0.3580064689
0.5186185078 0.3199999928 -0.1485612064
0.5428489334 0.1626375221 -0.1554038178
0.3626411003 0.3264240504 -0.0038060765
0.6145268838 0.1709224644 -0.0053950403
0.4916488102 0.2984358900 -0.1455155809
0.5599245302 0.2756396800 -0.0033876146
0.4737901852 0.2320513543 -0.0138714338
0.6397084010 0.1642323315 -0.0449126071
0.5640066214 0.2219314035 -0.3247155403
0.6080431192 0.1510108118 -0.0862470536
0.5680474218 0.1669840079 -0.0018594278
0.4765138704 0.2908312789 -0.1119418345
0.4776743379 0.2643889421 -0.0727645528
0.4898477603 0.3035205755 -0.1299554346
0.6031887709 0.1543233984 -0.1009073571
0.4816564420 0.1691009554 -0.0330147824
0.6033320105 0.2832937080 -0.1879889061
0.3718891919 0.3578647829 -0.0554245564
0.6121386244 0.2241848531 -0.2581570721
0.3933021077 0.2925982089 -0.1073455028
0.3420043471 0.2938172750 -0.0304888325
0.4667041969 0.2893519532 0.0000000000
0.4804145846 0.2174850363 -0.1381142997
0.3277424648 0.3407916798 -0.0468264395
0.4675586406 0.1845715180 -0.1535756605
0.4688918860 0.2679550006 -0.2993121557
0.4273396090 0.2447248515 0.0000000000
0.3229253254 0.2175291954 -0.2784755418
0.5625185998 0.3082089304 -0.1262618108
0.4223418209 0.2208657075 -0.0609823601
0.5775078813 0.1718464461 -0.2522790450
0.3936245339 0.2606395475 -0.0841192538
0.5387472211 0.2914744377 -0.2216675059
0.4435954670 0.2631182158 -0.1777776282
0.4169401296 0.2481333476 0.0000000000
0.3829550347 0.2573492993 -0.1968822553
0.4194167280 0.3411499781 -0.0020590891
0.6240599789 0.2230016233 -0.2235170748
0.4449736185 0.2535737210 -0.0173643467
0.5026514519 0.2687477597 -0.3200044978
0.6076060175 0.2923632262 -0.1771569093
0.5860515363 0.1850515323 -0.2483860350
0.6573519090 0.2552864325 -0.1496217395
0.5919745908 0.2212250437 -0.1655667833
0.4495200963 0.2782570082 -0.0433680199
0.4124462302 0.3656940681 -0.0400391198
0.4349704619 0.1861690921 -0.0354695166
0.4691526913 0.2041265694 -0.1044139180
0.4183759841 0.2368571986 -0.1118358105
0.4475953347 0.1937736861 -0.0682524757
0.4435150249 0.3610577133 -0.0134715674
0.5172906247 0.2688490872 0.0000000000
0.3555512957 0.2449459979 -0.2481812577
0.4610191534 0.2349530798 -0.1049757351
0.6485133823 0.1755035482 -0.0716749092
0.4638426476 0.3013273956 0.0000000000
0.4942529134 0.1502713958 -0.2104602276
0.4009315884 0.1998787839 -0.0062686532
0.5125330848 0.2810462303 -0.0025498970
0.4570613324 0.3592426037 -0.0141358645
0.3344363956 0.3207484473 -0.0335959134
0.3430427968 0.3106060020 -0.0646532201
0.3656817149 0.3408199048 -0.0705680937
0.4462513331 0.3185391666 -0.1012431346
0.5935033995 0.1557895696 -0.0989162852
0.4203706934 0.2768506768 -0.3600000143
0.5097918108 0.2490878237 -0.1659163278
0.5773496582 0.1745827307 -0.2070009861
0.5466787539 0.1860964736 -0.1562166624
0.3292030133 0.2244957172 -0.2853243187
0.5919445142 0.1458020786 -0.0460954714
0.4905281069 0.2930536417 -0.1365023226
0.3983178284 0.2208726668 -0.0030549924
0.3836311094 0.2602784112 -0.1875091053
0.3208560423 0.3338628477 -0.0470991408
0.3886455697 0.3643094492 -0.0249526462
0.5883823245 0.2627286609 -0.0489702515
0.4265649472 0.2195199934 -0.0057141209
0.4411625239 0.2632880628 -0.2437119259
0.6029935867 0.2105102076 -0.2642711130
0.5648571201 0.2649974375 -0.0157460269
0.4274848590 0.1779009149 -0.3596036620
0.6069526228 0.1567866664 -0.1406686436
0.4958722038 0.1862575174 -0.0022788319
0.4616008485 0.2554324621 -0.0224916148
0.5524988935 0.1539576270 -0.0497816802
0.6735298918 0.2166333230 -0.1093489746
0.4496077362 0.1671373305 -0.2834134628
0.5420363554 0.2970134570 -0.1830942786
0.5714633410 0.2715122196 -0.2547996717
0.6501215395 0.1739579867 -0.0809376246
0.5079027821 0.2782355029 -0.2827900119
0.3445630564 0.3636890902 -0.0176827861
0.4603416814 0.2802719323 -0.1804669339
0.5770851439 0.1616676469 -0.1099408346
0.3559774840 0.1682221918 -0.2777966122
0.6254862347 0.2838313962 -0.1514148522
0.5610452337 0.2781381078 -0.0521882111
0.5634816133 0.3134068792 -0.1681711029
0.5108043786 0.3084757305 -0.1376892699
0.4471665949 0.3094457076 0.0000000000
0.6509645084 0.2198392473 -0.0181495515
0.4566146253 0.1823172061 -0.0035855324
0.3570242866 0.1898458550 -0.2300000042
0.3174795956 0.2058958456 -0.2748819435
0.4650385308 0.1651522232 -0.2010235249
0.5250042466 0.2906483022 -0.0049128459
0.3487176946 0.2721246757 -0.0427622459
0.6594085843 0.2381599556 -0.0607812115
0.5124665171 0.2633757658 -0.3270616843
0.5937586396 0.1508804223 -0.0770237918
0.5610038162 0.2416318513 -0.3137120192
0.5110273207 0.1469726768 -0.2490918839
0.5860259077 0.1635527501 -0.1412958669
0.5234823351 0.2924659822 -0.0663430417
0.4566630729 0.3359902177 -0.0049999999
0.3182598190 0.3138152194 -0.0551601184
0.4101969406 0.3367330219 -0.0009038491
0.5912263868 0.2210581622 -0.1824504625
0.5956376318 0.2919993214 -0.1848472165
0.6586709230 0.2353470564 -0.0507358110
0.4910762881 0.2860779432 -0.1487140403
0.4364762394 0.1670213407 -0.2681261198
0.3442292893 0.2378202077 -0.2355814971
0.4613045294 0.3337586322 -0.0862611210
0.5394513544 0.2308189929 -0.2001908538
0.5499285888 0.2123648496 -0.3423749839
0.4215672941 0.1992628737 -0.1892218626
0.3281884763 0.1952264805 -0.2428695090
0.5536308511 0.1376308358 -0.2293507009
0.4942001090 0.2375618055 -0.0081555590
0.6005427147 0.2885787806 -0.1492667839
0.3996373707 0.2276298926 -0.2293408966
0.4382775384 0.2974960812 0.0000000000
0.5919388273 0.1964840380 -0.2463220703
0.5624684478 0.1495097394 -0.3125102875
0.5262534221 0.1574702960 -0.0152249729
0.5001636063 0.2928092152 -0.1640223323
0.3508381564 0.2319439724 -0.3249254075
